NCOLS 170
NROWS 31
XLLCORNER 1637840
YLLCORNER 5111620
CELLSIZE 10.0
NODATA_VALUE -9999
1123.845947265625 1125.0830078125 1126.248046875 1126.18701171875 1122.2840576171875 1122.8699951171875 1126.7099609375 1129.6080322265625 1130.8060302734375 1133.698974609375 1136.5810546875 1139.14697265625 1142.2979736328125 1143.7080078125 1145.5240478515625 1148.197021484375 1149.6109619140625 1150.386962890625 1152.3709716796875 1160.2139892578125 1166.7919921875 1177.968994140625 1182.2850341796875 1186.1810302734375 1197.385986328125 1207.2149658203125 1215.633056640625 1223.010986328125 1230.9019775390625 1236.2469482421875 1241.4849853515625 1246.6180419921875 1252.45703125 1259.5140380859375 1266.677001953125 1273.508056640625 1279.6109619140625 1285.81396484375 1288.27099609375 1293.2879638671875 1299.7139892578125 1304.4129638671875 1309.4520263671875 1313.9010009765625 1319.4000244140625 1321.7010498046875 1326.4189453125 1331.1639404296875 1336.0589599609375 1341.251953125 1346.166015625 1351.071044921875 1357.2860107421875 1364.06201171875 1371.9820556640625 1378.739013671875 1385.176025390625 1388.9620361328125 1392.1209716796875 1398.884033203125 1405.31298828125 1410.2550048828125 1415.3890380859375 1420.22705078125 1426.6070556640625 1430.199951171875 1435.2349853515625 1440.2159423828125 1444.8289794921875 1449.5250244140625 1454.321044921875 1459.4320068359375 1464.1739501953125 1471.8310546875 1477.0909423828125 1481.5340576171875 1486.6190185546875 1491.97802734375 1497.7080078125 1503.9119873046875 1510.7060546875 1518.0880126953125 1524.0849609375 1531.8900146484375 1538.760009765625 1545.8389892578125 1552.39404296875 1557.85498046875 1562.802978515625 1566.4439697265625 1570.0369873046875 1573.1689453125 1578.6710205078125 1583.635986328125 1590.0489501953125 1594.6920166015625 1600.5699462890625 1606.58203125 1608.6910400390625 1613.2550048828125 1616.5770263671875 1621.385986328125 1625.5040283203125 1630.68603515625 1637.0 1641.0870361328125 1646.446044921875 1651.1929931640625 1655.93603515625 1659.6629638671875 1662.583984375 1666.9239501953125 1670.9720458984375 1674.675048828125 1678.031005859375 1681.7900390625 1686.666015625 1691.822998046875 1696.16796875 1700.217041015625 1705.47900390625 1710.739990234375 1716.2049560546875 1720.175048828125 1724.071044921875 1725.7230224609375 1729.39697265625 1733.9560546875 1736.739013671875 1741.010986328125 1742.4090576171875 1744.427978515625 1746.9930419921875 1748.384033203125 1750.8330078125 1752.3499755859375 1754.3389892578125 1759.489990234375 1762.989013671875 1766.4090576171875 1770.552001953125 1775.2750244140625 1778.5880126953125 1783.9969482421875 1789.887939453125 1795.7340087890625 1801.177978515625 1806.708984375 1812.22802734375 1816.04296875 1818.2020263671875 1820.387939453125 1822.550048828125 1822.7540283203125 1824.2750244140625 1827.1800537109375 1830.258056640625 1832.8509521484375 1833.4300537109375 1834.3690185546875 1835.72705078125 1837.1639404296875 1838.77001953125 1838.2769775390625 1837.1009521484375 1836.740966796875 1836.18603515625 1835.9219970703125 1835.843017578125 1838.7149658203125
1116.6939697265625 1117.8790283203125 1118.0450439453125 1120.282958984375 1122.4090576171875 1124.126953125 1125.7469482421875 1126.489990234375 1131.7490234375 1137.738037109375 1141.6529541015625 1144.27099609375 1146.886962890625 1148.0419921875 1148.083984375 1148.0830078125 1151.426025390625 1154.4029541015625 1161.8260498046875 1168.4090576171875 1177.14501953125 1183.0830078125 1182.0810546875 1186.6490478515625 1194.541015625 1202.5999755859375 1211.447998046875 1220.383056640625 1232.762939453125 1237.968994140625 1245.5 1250.5350341796875 1254.93701171875 1260.614013671875 1265.8179931640625 1270.6839599609375 1276.845947265625 1283.81298828125 1288.1400146484375 1293.3990478515625 1301.1080322265625 1307.5369873046875 1311.0870361328125 1314.0970458984375 1319.625 1323.0340576171875 1326.9090576171875 1331.490966796875 1336.863037109375 1342.449951171875 1347.70703125 1352.636962890625 1358.633056640625 1366.64501953125 1374.9620361328125 1380.1240234375 1387.72998046875 1393.175048828125 1398.5849609375 1403.7669677734375 1408.8759765625 1413.947021484375 1419.343017578125 1424.35302734375 1429.27197265625 1433.531005859375 1439.3759765625 1444.5030517578125 1448.697998046875 1451.498046875 1455.3709716796875 1459.1929931640625 1464.31103515625 1471.739013671875 1477.739013671875 1482.81201171875 1487.5479736328125 1493.3280029296875 1498.52099609375 1505.2039794921875 1512.300048828125 1519.3900146484375 1526.2979736328125 1534.011962890625 1541.8699951171875 1549.2039794921875 1554.718017578125 1561.06298828125 1564.18994140625 1566.8819580078125 1569.7850341796875 1573.4759521484375 1578.9940185546875 1585.2130126953125 1591.1080322265625 1596.22900390625 1602.626953125 1607.904052734375 1611.8399658203125 1616.5780029296875 1619.592041015625 1623.803955078125 1628.708984375 1633.574951171875 1638.5970458984375 1643.407958984375 1649.112060546875 1654.2099609375 1658.9320068359375 1663.5040283203125 1666.4329833984375 1671.5140380859375 1675.9090576171875 1679.322998046875 1682.612060546875 1687.43603515625 1691.9000244140625 1697.373046875 1700.458984375 1704.387939453125 1709.5980224609375 1714.4759521484375 1719.8289794921875 1723.4139404296875 1726.39794921875 1729.02001953125 1733.2679443359375 1738.010986328125 1741.5789794921875 1743.2679443359375 1745.4110107421875 1747.7080078125 1749.2320556640625 1752.239013671875 1755.51904296875 1756.425048828125 1758.011962890625 1762.4200439453125 1765.7340087890625 1770.1829833984375 1774.802001953125 1780.4830322265625 1784.9959716796875 1788.447998046875 1793.2640380859375 1799.052978515625 1803.35205078125 1808.008056640625 1813.844970703125 1816.8299560546875 1818.114990234375 1819.6519775390625 1821.1319580078125 1823.196044921875 1826.8580322265625 1830.656005859375 1831.2889404296875 1831.93798828125 1832.759033203125 1834.31103515625 1835.6829833984375 1836.9840087890625 1838.2490234375 1838.8330078125 1837.8800048828125 1837.052978515625 1836.93994140625 1836.3909912109375 1836.6639404296875 1838.718994140625
1112.7320556640625 1116.2320556640625 1119.1820068359375 1121.35498046875 1123.3709716796875 1125.6400146484375 1128.2989501953125 1132.2430419921875 1135.968017578125 1140.7149658203125 1144.761962890625 1147.0159912109375 1151.39599609375 1155.5780029296875 1157.2259521484375 1159.821044921875 1163.60595703125 1167.23095703125 1173.43505859375 1178.9610595703125 1185.7459716796875 1191.343994140625 1189.9320068359375 1189.9560546875 1190.06103515625 1198.998046875 1207.262939453125 1221.7249755859375 1226.3079833984375 1233.8289794921875 1241.218017578125 1246.012939453125 1250.6429443359375 1254.6300048828125 1259.093017578125 1265.43896484375 1270.843994140625 1278.157958984375 1285.220947265625 1291.9940185546875 1297.9029541015625 1305.6629638671875 1312.781982421875 1316.6080322265625 1321.0040283203125 1323.6090087890625 1328.970947265625 1333.41796875 1337.968017578125 1344.0989990234375 1350.1600341796875 1354.958984375 1359.949951171875 1367.1600341796875 1375.7559814453125 1382.4959716796875 1388.5159912109375 1394.23095703125 1400.001953125 1406.094970703125 1411.1419677734375 1416.301025390625 1421.2010498046875 1426.0379638671875 1431.2669677734375 1437.071044921875 1442.7449951171875 1447.2530517578125 1451.051025390625 1454.5970458984375 1458.1829833984375 1461.0340576171875 1465.6309814453125 1472.949951171875 1479.1290283203125 1483.791015625 1488.6610107421875 1493.9639892578125 1499.737060546875 1507.0260009765625 1514.10498046875 1521.4720458984375 1528.27099609375 1535.5169677734375 1542.8280029296875 1550.9429931640625 1557.407958984375 1561.905029296875 1564.8260498046875 1567.4720458984375 1570.862060546875 1574.2840576171875 1580.072998046875 1585.9239501953125 1593.4759521484375 1598.1839599609375 1605.0179443359375 1609.3170166015625 1614.8480224609375 1619.27294921875 1623.343994140625 1626.81396484375 1630.9560546875 1635.887939453125 1640.3409423828125 1645.72705078125 1651.615966796875 1657.0550537109375 1661.2340087890625 1665.4169921875 1670.2259521484375 1674.4169921875 1678.0980224609375 1682.7259521484375 1686.780029296875 1691.779052734375 1696.385986328125 1701.22900390625 1704.68798828125 1708.31005859375 1713.052978515625 1717.6949462890625 1722.31494140625 1726.7220458984375 1730.2080078125 1733.06201171875 1737.4329833984375 1741.9189453125 1744.81298828125 1746.050048828125 1748.06005859375 1750.1400146484375 1752.76904296875 1755.5050048828125 1758.0909423828125 1759.5 1761.5899658203125 1765.197021484375 1768.5479736328125 1774.23095703125 1779.616943359375 1784.885009765625 1789.405029296875 1792.635986328125 1796.468017578125 1801.9310302734375 1804.95703125 1809.1600341796875 1813.7359619140625 1816.865966796875 1817.8409423828125 1819.01904296875 1822.3360595703125 1825.4320068359375 1829.1939697265625 1831.04296875 1830.47998046875 1830.708984375 1832.4930419921875 1834.77099609375 1836.2850341796875 1837.0340576171875 1837.6390380859375 1837.7430419921875 1837.18994140625 1836.9310302734375 1836.7860107421875 1836.41796875 1837.4239501953125 1838.072021484375
1115.404052734375 1119.2469482421875 1123.136962890625 1125.06201171875 1124.9420166015625 1130.3509521484375 1133.324951171875 1137.948974609375 1141.926025390625 1146.302978515625 1150.0670166015625 1152.2960205078125 1155.760009765625 1162.614013671875 1167.58203125 1170.041015625 1172.594970703125 1176.4530029296875 1184.428955078125 1191.5989990234375 1197.1800537109375 1200.7939453125 1200.4150390625 1199.5469970703125 1197.4129638671875 1195.8060302734375 1200.633056640625 1210.259033203125 1218.301025390625 1225.031005859375 1233.0689697265625 1237.43896484375 1240.8680419921875 1245.1300048828125 1251.239990234375 1256.6639404296875 1263.02001953125 1270.4410400390625 1277.4429931640625 1287.3709716796875 1294.7440185546875 1303.3499755859375 1310.68505859375 1315.469970703125 1319.8759765625 1323.864013671875 1328.8170166015625 1333.447021484375 1338.93798828125 1345.2740478515625 1353.0279541015625 1356.5560302734375 1361.927978515625 1368.467041015625 1376.26904296875 1383.1109619140625 1389.4090576171875 1395.2099609375 1400.98095703125 1406.7530517578125 1412.43505859375 1418.2989501953125 1422.81005859375 1428.0009765625 1433.865966796875 1439.5179443359375 1445.166015625 1448.8740234375 1452.0899658203125 1456.801025390625 1460.5760498046875 1464.072021484375 1467.7239990234375 1473.8330078125 1479.9730224609375 1485.1390380859375 1489.7939453125 1495.262939453125 1501.9639892578125 1508.1519775390625 1515.876953125 1523.5389404296875 1529.93701171875 1536.6099853515625 1543.7469482421875 1551.904052734375 1558.5560302734375 1562.31396484375 1565.3170166015625 1568.751953125 1572.18994140625 1575.885009765625 1581.8370361328125 1586.8809814453125 1593.43994140625 1599.31005859375 1605.6500244140625 1611.3189697265625 1616.9949951171875 1621.8399658203125 1625.1529541015625 1628.7449951171875 1632.7139892578125 1637.2449951171875 1641.5870361328125 1646.7490234375 1652.845947265625 1658.2099609375 1662.9010009765625 1668.5389404296875 1673.656982421875 1677.071044921875 1681.35498046875 1685.1409912109375 1690.3470458984375 1695.8070068359375 1701.009033203125 1703.9239501953125 1707.8389892578125 1711.9129638671875 1715.8929443359375 1720.52294921875 1725.0389404296875 1730.072998046875 1732.9100341796875 1736.2049560546875 1740.1070556640625 1744.573974609375 1746.2099609375 1747.8280029296875 1750.7030029296875 1753.2879638671875 1756.8740234375 1759.487060546875 1761.9599609375 1763.68701171875 1766.35595703125 1769.01904296875 1771.458984375 1776.0909423828125 1782.583984375 1789.1090087890625 1793.1610107421875 1796.6510009765625 1800.4659423828125 1804.6600341796875 1807.56201171875 1810.2359619140625 1813.6590576171875 1815.9580078125 1817.876953125 1819.779052734375 1824.3680419921875 1826.865966796875 1830.27197265625 1829.89501953125 1829.0240478515625 1830.7330322265625 1833.2130126953125 1833.68505859375 1834.7850341796875 1835.2220458984375 1835.31103515625 1835.501953125 1835.52099609375 1836.3409423828125 1836.053955078125 1836.0560302734375 1836.675048828125 1838.14794921875
1122.10302734375 1126.885986328125 1128.6689453125 1130.60400390625 1132.697998046875 1138.344970703125 1141.14404296875 1144.7989501953125 1148.9759521484375 1151.4530029296875 1156.8699951171875 1160.5269775390625 1159.4730224609375 1168.2659912109375 1175.657958984375 1178.66796875 1183.282958984375 1188.9439697265625 1197.7740478515625 1204.1810302734375 1210.364990234375 1212.83203125 1211.2919921875 1209.719970703125 1209.5140380859375 1207.291015625 1208.1080322265625 1211.14794921875 1217.7740478515625 1220.5789794921875 1223.06201171875 1227.5760498046875 1231.8389892578125 1235.7139892578125 1242.220947265625 1250.2030029296875 1256.4239501953125 1264.093994140625 1271.4930419921875 1278.8199462890625 1288.718994140625 1298.571044921875 1306.01904296875 1312.0489501953125 1317.7550048828125 1322.843994140625 1327.89697265625 1333.3349609375 1339.384033203125 1345.6290283203125 1351.9010009765625 1357.5030517578125 1363.3900146484375 1370.5439453125 1377.7669677734375 1384.948974609375 1388.5909423828125 1395.0140380859375 1401.2769775390625 1407.1590576171875 1413.4620361328125 1418.56103515625 1423.991943359375 1429.6639404296875 1435.7550048828125 1441.385009765625 1445.529052734375 1449.7430419921875 1454.074951171875 1458.18896484375 1462.7989501953125 1466.8990478515625 1471.3060302734375 1476.9730224609375 1482.1390380859375 1487.3060302734375 1491.281005859375 1496.4110107421875 1502.5689697265625 1509.1409912109375 1516.510009765625 1524.2540283203125 1532.4959716796875 1537.81005859375 1544.133056640625 1551.448974609375 1558.0479736328125 1561.8199462890625 1565.719970703125 1569.949951171875 1573.3680419921875 1577.9840087890625 1582.8900146484375 1588.218017578125 1594.052978515625 1599.845947265625 1607.1099853515625 1613.02099609375 1618.2030029296875 1622.093017578125 1625.7509765625 1629.5870361328125 1633.376953125 1638.3909912109375 1643.2939453125 1648.73095703125 1654.072998046875 1659.2239990234375 1664.751953125 1670.802001953125 1675.541015625 1679.1639404296875 1682.9110107421875 1687.5450439453125 1692.2249755859375 1697.64599609375 1701.9830322265625 1705.9840087890625 1709.635009765625 1713.988037109375 1718.1710205078125 1722.4849853515625 1727.41796875 1732.050048828125 1734.531005859375 1738.0009765625 1742.717041015625 1745.60498046875 1747.041015625 1750.0279541015625 1753.9959716796875 1758.64697265625 1762.4620361328125 1765.5489501953125 1766.510009765625 1768.0450439453125 1771.406005859375 1774.68994140625 1776.6949462890625 1778.905029296875 1784.5570068359375 1791.2030029296875 1796.2979736328125 1800.053955078125 1803.5880126953125 1807.23095703125 1809.4320068359375 1811.35498046875 1813.43603515625 1815.1490478515625 1818.2779541015625 1821.4759521484375 1823.572998046875 1828.5789794921875 1828.9339599609375 1827.6629638671875 1827.5570068359375 1830.0799560546875 1830.0340576171875 1830.8900146484375 1831.5909423828125 1832.302978515625 1832.52099609375 1832.6300048828125 1834.301025390625 1835.2130126953125 1834.5699462890625 1835.300048828125 1836.572021484375 1837.7569580078125
1126.3310546875 1130.72705078125 1134.3330078125 1136.0550537109375 1138.7230224609375 1145.4859619140625 1151.1839599609375 1153.7509765625 1157.467041015625 1160.5770263671875 1164.45703125 1166.9930419921875 1164.5250244140625 1171.10302734375 1180.9520263671875 1185.093017578125 1189.634033203125 1196.5670166015625 1203.0360107421875 1210.0660400390625 1216.18994140625 1219.2010498046875 1219.7860107421875 1220.0810546875 1220.35595703125 1219.3900146484375 1219.7840576171875 1219.8480224609375 1223.6929931640625 1226.5880126953125 1229.64599609375 1233.073974609375 1237.3179931640625 1242.427001953125 1247.2449951171875 1250.4549560546875 1253.0169677734375 1259.31298828125 1267.98095703125 1275.718017578125 1286.5899658203125 1294.4139404296875 1301.0660400390625 1307.9949951171875 1314.2669677734375 1319.280029296875 1326.0350341796875 1331.7840576171875 1338.2080078125 1345.0589599609375 1350.8499755859375 1357.3489990234375 1365.2989501953125 1371.010986328125 1378.1090087890625 1381.925048828125 1388.4749755859375 1393.9959716796875 1400.4200439453125 1406.9859619140625 1412.5009765625 1418.376953125 1424.7979736328125 1430.31396484375 1436.4599609375 1442.281982421875 1446.1419677734375 1450.6839599609375 1454.9129638671875 1459.386962890625 1463.8699951171875 1468.1920166015625 1474.260986328125 1478.989990234375 1484.18896484375 1488.8919677734375 1493.2760009765625 1498.5880126953125 1504.7459716796875 1511.2659912109375 1518.0389404296875 1526.0179443359375 1533.2769775390625 1539.2159423828125 1545.0589599609375 1551.3199462890625 1557.927978515625 1562.470947265625 1566.8260498046875 1570.7249755859375 1575.0660400390625 1580.093994140625 1584.8370361328125 1590.6590576171875 1595.279052734375 1601.197021484375 1607.448974609375 1613.491943359375 1618.508056640625 1622.199951171875 1626.7850341796875 1630.737060546875 1634.491943359375 1639.2650146484375 1645.9840087890625 1650.6090087890625 1656.010009765625 1660.470947265625 1667.458984375 1670.5699462890625 1675.5260009765625 1679.677001953125 1683.7979736328125 1688.427978515625 1692.697021484375 1697.8349609375 1702.8199462890625 1707.114013671875 1711.3199462890625 1715.3189697265625 1719.8919677734375 1724.510986328125 1729.6529541015625 1732.93603515625 1735.52001953125 1739.198974609375 1743.3480224609375 1747.1429443359375 1750.761962890625 1754.657958984375 1759.251953125 1763.2969970703125 1767.4139404296875 1768.094970703125 1769.9229736328125 1771.95703125 1775.6300048828125 1778.4849853515625 1780.7459716796875 1783.9100341796875 1786.3909912109375 1791.1650390625 1797.3759765625 1801.64501953125 1805.301025390625 1809.10302734375 1811.2750244140625 1812.468994140625 1813.6800537109375 1816.1629638671875 1818.990966796875 1820.2550048828125 1824.323974609375 1827.43505859375 1825.31201171875 1824.60205078125 1827.0849609375 1826.136962890625 1826.239013671875 1827.2769775390625 1828.135986328125 1828.7449951171875 1829.6199951171875 1831.2850341796875 1832.384033203125 1833.345947265625 1833.220947265625 1834.68994140625 1835.7020263671875 1836.946044921875
1128.89501953125 1134.2760009765625 1138.9090576171875 1142.4320068359375 1144.655029296875 1151.366943359375 1158.282958984375 1161.199951171875 1165.291015625 1169.0069580078125 1173.2049560546875 1175.1920166015625 1175.2120361328125 1173.364990234375 1183.531982421875 1194.583984375 1196.489990234375 1201.9439697265625 1208.4229736328125 1217.029052734375 1222.0550537109375 1226.4639892578125 1227.4539794921875 1226.0980224609375 1228.322021484375 1228.81103515625 1228.2740478515625 1226.904052734375 1229.7080078125 1235.2650146484375 1239.425048828125 1244.011962890625 1250.552978515625 1254.0830078125 1257.875 1260.9090576171875 1262.2440185546875 1260.31005859375 1263.7230224609375 1270.6510009765625 1282.0369873046875 1290.4539794921875 1299.2840576171875 1303.260009765625 1310.2060546875 1315.72900390625 1323.3070068359375 1329.3709716796875 1337.0699462890625 1344.3160400390625 1351.2430419921875 1357.7349853515625 1366.281005859375 1372.926025390625 1377.56005859375 1380.7779541015625 1387.4530029296875 1393.0009765625 1399.720947265625 1405.802001953125 1412.3719482421875 1418.2049560546875 1424.4429931640625 1430.612060546875 1436.3699951171875 1442.5439453125 1447.1920166015625 1451.136962890625 1456.114990234375 1460.77099609375 1464.4649658203125 1469.8759765625 1476.7030029296875 1482.634033203125 1486.0810546875 1491.0849609375 1496.02294921875 1500.2030029296875 1506.93603515625 1513.8919677734375 1521.4659423828125 1528.8330078125 1535.60400390625 1541.762939453125 1546.68603515625 1552.68798828125 1557.9139404296875 1563.1519775390625 1567.9820556640625 1572.136962890625 1577.1729736328125 1581.93798828125 1587.6729736328125 1593.241943359375 1597.949951171875 1603.22802734375 1609.1409912109375 1614.9339599609375 1619.7259521484375 1623.3310546875 1627.7640380859375 1632.1490478515625 1636.8919677734375 1641.18798828125 1646.1409912109375 1651.583984375 1656.9129638671875 1661.8399658203125 1666.217041015625 1670.9239501953125 1675.5 1679.6199951171875 1683.6920166015625 1688.759033203125 1693.260986328125 1698.5159912109375 1703.9449462890625 1708.5560302734375 1712.2459716796875 1716.112060546875 1721.0780029296875 1726.5880126953125 1730.6739501953125 1734.197998046875 1736.9169921875 1740.386962890625 1745.64794921875 1751.0689697265625 1756.2469482421875 1759.56201171875 1762.781005859375 1766.5699462890625 1769.198974609375 1771.23095703125 1773.9530029296875 1775.4969482421875 1779.4090576171875 1781.261962890625 1784.3609619140625 1787.39794921875 1790.2080078125 1792.3599853515625 1796.8509521484375 1803.1209716796875 1807.2230224609375 1810.376953125 1812.83203125 1813.864013671875 1814.1619873046875 1816.3570556640625 1818.9090576171875 1820.343994140625 1822.6829833984375 1824.0260009765625 1822.262939453125 1822.5780029296875 1824.35302734375 1823.029052734375 1823.10302734375 1823.60205078125 1823.7950439453125 1824.0469970703125 1826.303955078125 1829.2509765625 1830.4649658203125 1831.248046875 1833.31201171875 1833.5570068359375 1834.572998046875 1834.7020263671875
1134.4530029296875 1135.9100341796875 1140.5350341796875 1146.6300048828125 1149.958984375 1154.176025390625 1161.93505859375 1167.373046875 1172.2230224609375 1177.97705078125 1182.1319580078125 1184.876953125 1184.458984375 1176.404052734375 1184.52294921875 1197.3380126953125 1204.0909423828125 1207.1929931640625 1214.64697265625 1219.9620361328125 1227.468994140625 1232.5479736328125 1235.81396484375 1233.0999755859375 1234.9229736328125 1236.93505859375 1237.3060302734375 1236.9110107421875 1234.9649658203125 1238.1639404296875 1244.2020263671875 1251.06103515625 1256.5050048828125 1263.052001953125 1267.1190185546875 1271.2779541015625 1272.5789794921875 1269.27197265625 1266.0679931640625 1268.0159912109375 1275.2530517578125 1283.155029296875 1290.64794921875 1298.487060546875 1306.6309814453125 1311.762939453125 1320.9029541015625 1327.833984375 1335.0 1342.0260009765625 1350.385009765625 1356.0889892578125 1364.404052734375 1370.833984375 1376.498046875 1380.4029541015625 1386.4139404296875 1392.385009765625 1398.56396484375 1404.27001953125 1410.0389404296875 1416.697998046875 1423.0980224609375 1429.946044921875 1436.1929931640625 1442.4639892578125 1447.594970703125 1451.2110595703125 1456.8990478515625 1461.0269775390625 1464.7650146484375 1472.0439453125 1477.8089599609375 1482.8349609375 1487.0570068359375 1492.405029296875 1496.9840087890625 1501.884033203125 1508.2969970703125 1516.2060546875 1527.218994140625 1533.18994140625 1538.93701171875 1544.3570556640625 1548.3189697265625 1553.093017578125 1557.9429931640625 1563.239013671875 1568.4139404296875 1573.218017578125 1579.031005859375 1583.551025390625 1589.4129638671875 1595.2039794921875 1601.133056640625 1606.9150390625 1612.18896484375 1617.2349853515625 1621.6180419921875 1625.428955078125 1629.6219482421875 1634.18701171875 1638.5379638671875 1643.635009765625 1648.593994140625 1653.25 1658.1519775390625 1663.2159423828125 1668.1109619140625 1672.8780517578125 1677.219970703125 1680.3609619140625 1685.10498046875 1690.14599609375 1694.5260009765625 1700.5570068359375 1706.6739501953125 1710.9599609375 1713.883056640625 1717.4090576171875 1722.33203125 1728.3709716796875 1732.29296875 1734.927978515625 1738.261962890625 1743.0550537109375 1749.802001953125 1756.02001953125 1759.81396484375 1762.68896484375 1766.0159912109375 1768.9580078125 1772.1669921875 1774.85400390625 1777.2979736328125 1778.988037109375 1781.240966796875 1783.907958984375 1787.22900390625 1790.6099853515625 1794.0169677734375 1797.657958984375 1799.968017578125 1803.4820556640625 1808.719970703125 1812.64404296875 1815.3480224609375 1815.3170166015625 1815.47802734375 1817.593994140625 1818.9639892578125 1820.2840576171875 1821.6650390625 1822.7540283203125 1823.2230224609375 1822.85205078125 1823.4840087890625 1822.843994140625 1823.2130126953125 1823.2879638671875 1823.449951171875 1824.4969482421875 1826.2740478515625 1828.0279541015625 1829.22998046875 1830.7550048828125 1831.551025390625 1832.5269775390625 1833.4620361328125 1832.1920166015625
1139.77001953125 1144.2650146484375 1148.196044921875 1150.136962890625 1153.635009765625 1159.0469970703125 1163.81298828125 1170.97705078125 1178.365966796875 1186.801025390625 1191.7879638671875 1193.801025390625 1192.5689697265625 1185.81005859375 1187.011962890625 1199.7010498046875 1210.4110107421875 1214.365966796875 1218.574951171875 1226.822998046875 1233.3690185546875 1239.26904296875 1241.488037109375 1239.6719970703125 1238.759033203125 1244.48095703125 1245.031005859375 1245.1529541015625 1243.9219970703125 1243.43505859375 1249.2110595703125 1255.135009765625 1261.197998046875 1268.4630126953125 1274.1090087890625 1278.5360107421875 1280.761962890625 1277.2430419921875 1275.2530517578125 1272.35595703125 1273.6180419921875 1280.6829833984375 1287.60205078125 1294.864013671875 1303.4139404296875 1309.738037109375 1319.7030029296875 1326.3189697265625 1332.2159423828125 1338.68603515625 1345.5169677734375 1352.27294921875 1362.906005859375 1368.5260009765625 1373.532958984375 1380.9150390625 1385.6290283203125 1391.6500244140625 1398.43896484375 1404.0240478515625 1409.72900390625 1415.9949951171875 1422.7440185546875 1428.5159912109375 1435.27001953125 1441.5369873046875 1447.1090087890625 1451.2760009765625 1456.7879638671875 1461.1639404296875 1465.739013671875 1473.3599853515625 1478.29296875 1482.5040283203125 1486.6529541015625 1492.487060546875 1497.4229736328125 1503.0439453125 1509.76904296875 1517.3299560546875 1528.666015625 1534.60205078125 1541.6109619140625 1545.510009765625 1548.885986328125 1553.6070556640625 1558.31298828125 1563.2149658203125 1568.2679443359375 1574.156005859375 1578.8330078125 1585.2490234375 1591.2640380859375 1597.2740478515625 1603.4720458984375 1610.70703125 1615.904052734375 1619.739990234375 1623.489013671875 1627.2060546875 1631.0989990234375 1634.9840087890625 1640.14404296875 1644.8470458984375 1649.7640380859375 1656.0849609375 1660.279052734375 1665.5810546875 1669.89794921875 1674.677001953125 1679.1090087890625 1683.5240478515625 1689.3050537109375 1695.873046875 1700.7559814453125 1706.4539794921875 1712.5159912109375 1717.2860107421875 1721.1009521484375 1724.0269775390625 1728.623046875 1733.9730224609375 1738.4429931640625 1740.43798828125 1744.1590576171875 1748.375 1754.032958984375 1758.4639892578125 1761.5369873046875 1765.5989990234375 1768.947998046875 1771.1829833984375 1774.593994140625 1777.5570068359375 1779.8709716796875 1780.9310302734375 1784.8079833984375 1788.157958984375 1791.14794921875 1794.156982421875 1797.7960205078125 1801.1490478515625 1804.323974609375 1807.9549560546875 1810.259033203125 1813.678955078125 1816.5400390625 1817.0469970703125 1817.0550537109375 1818.6829833984375 1819.7569580078125 1821.386962890625 1823.218017578125 1823.5780029296875 1823.636962890625 1822.7840576171875 1823.248046875 1822.114990234375 1821.5579833984375 1821.4320068359375 1821.5889892578125 1823.0469970703125 1824.6109619140625 1825.9429931640625 1826.9339599609375 1828.1080322265625 1829.0439453125 1831.18505859375 1830.27294921875 1829.06103515625
1146.260986328125 1151.8050537109375 1156.02099609375 1159.9239501953125 1161.9530029296875 1162.0040283203125 1167.675048828125 1173.66796875 1182.6490478515625 1189.9849853515625 1197.1650390625 1200.1309814453125 1201.7509765625 1195.801025390625 1190.1500244140625 1200.8990478515625 1214.31396484375 1222.8289794921875 1224.3480224609375 1230.491943359375 1237.4639892578125 1244.47900390625 1246.491943359375 1245.81201171875 1244.2030029296875 1247.5169677734375 1251.7550048828125 1253.0140380859375 1252.532958984375 1251.467041015625 1253.3079833984375 1260.72900390625 1266.759033203125 1272.822021484375 1278.0860595703125 1285.364990234375 1290.156982421875 1285.77294921875 1283.2469482421875 1280.60205078125 1280.1319580078125 1280.6810302734375 1286.18994140625 1293.8070068359375 1302.949951171875 1309.4119873046875 1317.8189697265625 1324.22802734375 1329.6529541015625 1335.491943359375 1341.5140380859375 1350.85205078125 1361.3919677734375 1363.4949951171875 1369.614013671875 1377.5780029296875 1384.2919921875 1390.196044921875 1396.6099853515625 1403.0040283203125 1409.4189453125 1415.72802734375 1421.4940185546875 1427.18994140625 1433.469970703125 1439.39501953125 1446.1619873046875 1451.4320068359375 1457.4229736328125 1461.68603515625 1467.1490478515625 1471.10205078125 1477.5389404296875 1482.4449462890625 1486.7960205078125 1491.9229736328125 1496.6419677734375 1502.85205078125 1509.155029296875 1516.552978515625 1527.137939453125 1532.050048828125 1537.675048828125 1542.8819580078125 1546.761962890625 1551.3709716796875 1555.5760498046875 1561.489990234375 1566.77294921875 1572.7469482421875 1579.0789794921875 1585.0050048828125 1590.9200439453125 1597.43798828125 1604.89794921875 1613.39501953125 1617.220947265625 1621.4090576171875 1624.759033203125 1628.3699951171875 1631.634033203125 1635.9630126953125 1641.248046875 1645.9630126953125 1651.3079833984375 1656.47900390625 1662.3780517578125 1667.8509521484375 1673.33203125 1678.1910400390625 1683.3699951171875 1688.9620361328125 1694.56201171875 1701.3409423828125 1706.9110107421875 1713.1939697265625 1717.9849853515625 1723.9630126953125 1729.498046875 1732.6820068359375 1735.508056640625 1739.7010498046875 1743.1629638671875 1746.3280029296875 1750.4720458984375 1753.6700439453125 1756.699951171875 1760.156982421875 1763.7669677734375 1767.364990234375 1769.0479736328125 1772.927978515625 1775.5760498046875 1778.45703125 1780.928955078125 1783.3570556640625 1787.85400390625 1791.0360107421875 1794.0550537109375 1797.135986328125 1800.697021484375 1804.2099609375 1807.529052734375 1810.8719482421875 1815.375 1816.5789794921875 1817.844970703125 1819.1510009765625 1819.72900390625 1821.6400146484375 1823.3380126953125 1824.947021484375 1825.4229736328125 1825.0780029296875 1823.998046875 1822.302978515625 1821.06201171875 1819.56103515625 1818.7139892578125 1818.7139892578125 1819.27197265625 1820.1610107421875 1821.39404296875 1822.8060302734375 1823.9659423828125 1825.0 1826.5579833984375 1827.9100341796875 1827.2080078125 1825.2969970703125
1151.5789794921875 1156.116943359375 1163.0489501953125 1168.0369873046875 1171.635986328125 1168.4449462890625 1172.5379638671875 1177.4859619140625 1186.259033203125 1194.31005859375 1201.77197265625 1204.8389892578125 1208.2950439453125 1206.4730224609375 1196.697998046875 1204.4110107421875 1215.85595703125 1225.9139404296875 1230.60498046875 1235.3990478515625 1242.52001953125 1248.447021484375 1251.4630126953125 1251.469970703125 1250.5770263671875 1251.0419921875 1256.4229736328125 1259.260009765625 1260.5889892578125 1260.7459716796875 1259.7239990234375 1264.51904296875 1272.626953125 1279.9139404296875 1284.93603515625 1290.2939453125 1297.1510009765625 1295.0260009765625 1293.31103515625 1288.781982421875 1287.4310302734375 1284.886962890625 1284.1810302734375 1291.08203125 1298.7349853515625 1306.366943359375 1315.282958984375 1321.3690185546875 1327.7969970703125 1333.0040283203125 1337.136962890625 1344.33203125 1350.571044921875 1357.1009521484375 1366.1610107421875 1373.31298828125 1382.2249755859375 1386.925048828125 1394.56396484375 1400.5400390625 1406.612060546875 1413.698974609375 1421.0660400390625 1427.1939697265625 1431.803955078125 1438.5830078125 1446.6180419921875 1452.43603515625 1457.6800537109375 1461.7149658203125 1466.4990234375 1470.156005859375 1476.6920166015625 1481.8709716796875 1485.781982421875 1491.248046875 1496.43798828125 1502.301025390625 1508.0810546875 1514.60595703125 1521.490966796875 1527.1839599609375 1532.4639892578125 1536.822998046875 1540.7669677734375 1544.7020263671875 1550.0670166015625 1556.7869873046875 1563.0150146484375 1570.0550537109375 1577.541015625 1583.365966796875 1590.112060546875 1597.7099609375 1606.06494140625 1611.7879638671875 1616.22705078125 1620.3380126953125 1624.2469482421875 1627.6490478515625 1632.0419921875 1636.26904296875 1641.385986328125 1647.3389892578125 1653.197998046875 1658.7960205078125 1664.81201171875 1670.343994140625 1676.3609619140625 1681.0550537109375 1686.64501953125 1692.8499755859375 1699.823974609375 1705.447021484375 1710.759033203125 1715.1739501953125 1720.387939453125 1726.708984375 1730.887939453125 1733.6300048828125 1738.041015625 1741.08203125 1744.6300048828125 1747.592041015625 1750.739013671875 1754.0870361328125 1758.1639404296875 1761.7769775390625 1765.56298828125 1768.241943359375 1770.7860107421875 1773.5579833984375 1776.073974609375 1779.779052734375 1782.5670166015625 1785.3509521484375 1788.6400146484375 1792.14697265625 1795.1419677734375 1798.6920166015625 1803.27001953125 1806.375 1810.041015625 1814.1839599609375 1818.324951171875 1820.677001953125 1821.31103515625 1822.1669921875 1823.362060546875 1826.1099853515625 1827.9830322265625 1828.0770263671875 1826.4029541015625 1824.4530029296875 1821.60595703125 1819.9549560546875 1818.26904296875 1816.969970703125 1816.1829833984375 1816.43994140625 1816.47998046875 1816.9029541015625 1817.7569580078125 1819.10595703125 1820.697998046875 1822.0479736328125 1823.39599609375 1823.8909912109375 1823.4620361328125 1821.2950439453125
1161.498046875 1161.697998046875 1166.2509765625 1174.5340576171875 1177.8819580078125 1176.6290283203125 1178.366943359375 1181.9599609375 1189.5770263671875 1198.4420166015625 1205.9090576171875 1210.998046875 1214.8800048828125 1213.155029296875 1204.9090576171875 1204.9029541015625 1216.27197265625 1224.43896484375 1233.737060546875 1240.48095703125 1248.364013671875 1252.904052734375 1257.862060546875 1258.1290283203125 1258.501953125 1257.887939453125 1258.738037109375 1263.7220458984375 1268.48095703125 1267.89794921875 1267.27001953125 1268.7030029296875 1273.4100341796875 1284.6939697265625 1290.594970703125 1296.9720458984375 1302.52197265625 1302.5799560546875 1304.1689453125 1299.845947265625 1297.8260498046875 1292.362060546875 1291.7939453125 1290.6099853515625 1294.261962890625 1301.0789794921875 1309.1639404296875 1316.89501953125 1321.18896484375 1325.72998046875 1334.2239990234375 1339.3489990234375 1346.3590087890625 1352.593994140625 1363.4210205078125 1375.7550048828125 1379.491943359375 1385.2469482421875 1394.1309814453125 1398.3380126953125 1405.260986328125 1411.8489990234375 1419.7559814453125 1424.8389892578125 1430.10595703125 1437.8809814453125 1443.7850341796875 1450.4649658203125 1457.362060546875 1461.54296875 1466.5699462890625 1469.844970703125 1477.237060546875 1481.904052734375 1486.3170166015625 1490.10595703125 1495.39404296875 1501.447021484375 1506.988037109375 1513.0050048828125 1518.635009765625 1521.833984375 1524.6409912109375 1529.386962890625 1532.9610595703125 1538.010009765625 1544.490966796875 1550.7969970703125 1557.8580322265625 1567.5369873046875 1575.14794921875 1581.487060546875 1588.77294921875 1595.2840576171875 1601.81005859375 1607.862060546875 1613.553955078125 1618.490966796875 1623.0660400390625 1627.053955078125 1631.406005859375 1636.3399658203125 1644.258056640625 1648.552001953125 1654.8699951171875 1661.0760498046875 1666.0789794921875 1671.95703125 1676.5579833984375 1681.9560546875 1687.85400390625 1694.8389892578125 1701.0360107421875 1706.4320068359375 1711.947021484375 1715.6080322265625 1720.52197265625 1725.9210205078125 1730.074951171875 1734.2149658203125 1738.501953125 1742.3360595703125 1745.9310302734375 1749.197021484375 1751.7149658203125 1755.10498046875 1758.345947265625 1762.3360595703125 1766.1590576171875 1768.5379638671875 1770.7659912109375 1771.6610107421875 1774.2530517578125 1778.2230224609375 1781.968017578125 1784.468994140625 1786.22998046875 1789.6929931640625 1793.8800048828125 1797.9620361328125 1804.1180419921875 1809.092041015625 1813.5040283203125 1816.823974609375 1820.56005859375 1823.43505859375 1824.7259521484375 1825.666015625 1828.7430419921875 1831.4310302734375 1831.875 1829.362060546875 1826.446044921875 1823.072021484375 1820.032958984375 1817.7740478515625 1815.655029296875 1814.89501953125 1814.416015625 1813.8330078125 1813.4739990234375 1813.7349853515625 1814.677978515625 1816.1500244140625 1817.35498046875 1818.9100341796875 1819.01904296875 1819.1519775390625 1818.9949951171875 1817.115966796875
1168.56103515625 1169.8270263671875 1170.9339599609375 1178.98095703125 1184.66796875 1185.2860107421875 1185.56201171875 1187.1700439453125 1192.196044921875 1200.52197265625 1208.7340087890625 1217.7760009765625 1221.7060546875 1222.10400390625 1217.928955078125 1210.0030517578125 1216.5689697265625 1225.510986328125 1235.31005859375 1243.0760498046875 1250.0660400390625 1256.093017578125 1263.3590087890625 1265.5849609375 1266.385986328125 1265.7840576171875 1264.6519775390625 1268.125 1274.9639892578125 1276.2860107421875 1274.875 1277.0240478515625 1280.7039794921875 1285.10400390625 1291.427001953125 1300.052001953125 1306.866943359375 1310.115966796875 1312.926025390625 1314.0479736328125 1314.947998046875 1311.7569580078125 1305.9100341796875 1300.9100341796875 1300.8299560546875 1301.967041015625 1303.0360107421875 1308.1839599609375 1313.623046875 1319.126953125 1325.010986328125 1333.156005859375 1342.637939453125 1351.0240478515625 1357.093017578125 1366.6309814453125 1374.008056640625 1384.0369873046875 1391.198974609375 1396.41796875 1403.1099853515625 1408.7139892578125 1416.1820068359375 1422.509033203125 1428.948974609375 1435.4410400390625 1441.8719482421875 1449.323974609375 1455.56201171875 1460.3570556640625 1465.5560302734375 1471.85498046875 1477.9749755859375 1481.6300048828125 1485.5909423828125 1489.8509521484375 1496.031005859375 1500.60498046875 1504.863037109375 1510.6240234375 1514.8330078125 1515.0400390625 1518.383056640625 1521.468017578125 1526.990966796875 1532.5810546875 1538.740966796875 1546.7860107421875 1553.2239990234375 1562.7569580078125 1570.93701171875 1579.10498046875 1585.928955078125 1593.3270263671875 1599.425048828125 1605.6180419921875 1610.906982421875 1615.2840576171875 1620.4300537109375 1624.697998046875 1630.6429443359375 1635.47900390625 1641.9129638671875 1648.9410400390625 1655.636962890625 1661.115966796875 1666.7840576171875 1671.9720458984375 1677.66796875 1683.06103515625 1689.0699462890625 1695.489013671875 1702.0360107421875 1707.134033203125 1711.7440185546875 1715.5389404296875 1719.5579833984375 1724.5250244140625 1729.925048828125 1734.802001953125 1740.0159912109375 1743.22998046875 1747.3590087890625 1750.7239990234375 1752.9749755859375 1755.60498046875 1758.865966796875 1762.22802734375 1764.06005859375 1766.4090576171875 1766.8509521484375 1766.529052734375 1769.68994140625 1774.154052734375 1776.866943359375 1779.301025390625 1781.800048828125 1784.4200439453125 1789.56298828125 1796.1639404296875 1800.8690185546875 1806.9649658203125 1812.5989990234375 1818.1199951171875 1822.0469970703125 1825.0360107421875 1827.3299560546875 1830.3499755859375 1833.4520263671875 1833.9129638671875 1832.18603515625 1829.281982421875 1825.616943359375 1821.7889404296875 1819.22998046875 1815.6939697265625 1813.844970703125 1813.0360107421875 1811.4119873046875 1811.154052734375 1810.98095703125 1811.4200439453125 1812.25 1812.708984375 1813.5350341796875 1814.8060302734375 1814.97998046875 1814.81103515625 1814.0059814453125 1813.112060546875
1176.4759521484375 1178.8310546875 1180.3079833984375 1183.0889892578125 1190.052978515625 1194.0159912109375 1192.593994140625 1191.133056640625 1197.2060546875 1201.9129638671875 1211.468994140625 1219.5689697265625 1227.4019775390625 1229.5450439453125 1230.6829833984375 1221.7960205078125 1219.050048828125 1224.8580322265625 1235.2030029296875 1245.072998046875 1252.4019775390625 1258.593994140625 1266.0670166015625 1271.9239501953125 1272.4949951171875 1274.364990234375 1271.8389892578125 1274.5040283203125 1280.677978515625 1284.501953125 1284.9090576171875 1286.7099609375 1291.4730224609375 1294.739013671875 1296.77197265625 1301.592041015625 1310.2449951171875 1315.376953125 1318.9949951171875 1321.489990234375 1321.5899658203125 1320.406005859375 1317.0789794921875 1313.612060546875 1317.011962890625 1313.321044921875 1312.7020263671875 1315.3409423828125 1319.083984375 1322.488037109375 1324.594970703125 1331.220947265625 1340.5250244140625 1348.1400146484375 1355.6600341796875 1367.969970703125 1374.4310302734375 1381.3599853515625 1387.4610595703125 1394.9449462890625 1402.1629638671875 1407.239013671875 1413.3609619140625 1420.97900390625 1427.551025390625 1434.262939453125 1441.5479736328125 1448.2850341796875 1454.5030517578125 1460.1309814453125 1467.2950439453125 1473.0009765625 1477.2640380859375 1480.5660400390625 1484.248046875 1488.1319580078125 1492.0760498046875 1497.64697265625 1502.4139404296875 1505.8489990234375 1506.4110107421875 1507.6319580078125 1509.5570068359375 1515.875 1521.0970458984375 1526.7359619140625 1533.718994140625 1540.8570556640625 1548.83203125 1556.1729736328125 1566.9959716796875 1577.345947265625 1584.5419921875 1591.1590576171875 1596.928955078125 1601.322998046875 1606.071044921875 1610.406982421875 1615.3680419921875 1620.22802734375 1626.5369873046875 1633.4329833984375 1640.8199462890625 1647.4300537109375 1654.0240478515625 1658.9539794921875 1665.2530517578125 1671.656005859375 1677.5830078125 1683.177001953125 1689.2010498046875 1695.1600341796875 1701.501953125 1707.4150390625 1711.6219482421875 1716.0469970703125 1720.3929443359375 1725.0 1730.446044921875 1735.8050537109375 1740.802001953125 1744.9100341796875 1747.97705078125 1750.9959716796875 1753.5489501953125 1756.073974609375 1758.051025390625 1758.7440185546875 1759.3089599609375 1760.8260498046875 1762.386962890625 1766.06494140625 1772.14794921875 1773.864013671875 1777.35302734375 1779.718994140625 1782.0369873046875 1783.906005859375 1789.4940185546875 1795.6529541015625 1800.5679931640625 1804.5 1812.08203125 1818.427001953125 1822.5870361328125 1827.1590576171875 1830.2020263671875 1834.240966796875 1835.572998046875 1833.751953125 1832.0179443359375 1828.741943359375 1824.7239990234375 1820.7060546875 1817.2569580078125 1813.6650390625 1811.39599609375 1810.5040283203125 1809.1390380859375 1809.5970458984375 1808.989990234375 1807.85498046875 1808.198974609375 1808.56103515625 1809.279052734375 1810.031005859375 1810.4439697265625 1810.3590087890625 1809.3470458984375 1808.260986328125
1182.6280517578125 1184.302001953125 1183.18505859375 1188.9210205078125 1194.6199951171875 1199.654052734375 1201.56298828125 1198.218994140625 1201.0830078125 1208.0460205078125 1214.261962890625 1219.8380126953125 1228.4219970703125 1235.426025390625 1235.634033203125 1232.1829833984375 1225.072998046875 1229.967041015625 1232.510009765625 1240.10302734375 1250.5 1259.198974609375 1266.677978515625 1273.155029296875 1275.56005859375 1278.56298828125 1279.3709716796875 1281.093017578125 1287.196044921875 1294.31103515625 1296.7359619140625 1298.9019775390625 1302.8719482421875 1306.1319580078125 1305.8909912109375 1308.3260498046875 1315.1290283203125 1321.155029296875 1325.175048828125 1327.68798828125 1328.93505859375 1328.51904296875 1328.18994140625 1325.2669677734375 1325.406982421875 1325.7559814453125 1325.177978515625 1326.1099853515625 1330.1400146484375 1332.5140380859375 1335.0699462890625 1330.64697265625 1338.613037109375 1350.2989501953125 1355.3389892578125 1362.926025390625 1371.1070556640625 1379.4990234375 1386.7130126953125 1392.60302734375 1398.8489990234375 1404.781982421875 1411.7769775390625 1419.3709716796875 1426.8330078125 1434.2530517578125 1439.7359619140625 1447.8060302734375 1452.197021484375 1459.7860107421875 1466.2669677734375 1471.3480224609375 1473.031982421875 1476.56494140625 1479.8499755859375 1481.8719482421875 1486.4739990234375 1491.7760009765625 1496.5909423828125 1499.9029541015625 1499.012939453125 1501.470947265625 1511.14501953125 1518.3489990234375 1527.10205078125 1533.0989990234375 1540.2139892578125 1543.68798828125 1545.54296875 1552.76904296875 1564.3759765625 1572.302001953125 1576.4300537109375 1584.9539794921875 1590.31396484375 1594.321044921875 1598.116943359375 1602.5030517578125 1606.9859619140625 1611.5250244140625 1620.9730224609375 1628.5279541015625 1636.3690185546875 1644.470947265625 1651.071044921875 1657.009033203125 1662.97802734375 1669.06201171875 1675.4339599609375 1682.0479736328125 1688.366943359375 1695.10595703125 1700.6910400390625 1706.282958984375 1712.362060546875 1717.510009765625 1722.008056640625 1726.8740234375 1731.3599853515625 1735.7340087890625 1739.8189697265625 1741.800048828125 1745.4969482421875 1749.116943359375 1751.0770263671875 1750.7679443359375 1752.614990234375 1754.383056640625 1757.9949951171875 1761.6920166015625 1766.282958984375 1770.3079833984375 1775.1510009765625 1779.468994140625 1781.511962890625 1783.9210205078125 1785.9219970703125 1788.196044921875 1791.64794921875 1797.2650146484375 1802.968994140625 1809.2469482421875 1815.0479736328125 1819.2120361328125 1823.760986328125 1827.4019775390625 1831.666015625 1834.633056640625 1835.1090087890625 1833.25 1830.8890380859375 1828.248046875 1823.7740478515625 1817.5589599609375 1815.779052734375 1811.9520263671875 1809.9090576171875 1808.43603515625 1808.2010498046875 1806.261962890625 1805.4310302734375 1804.27001953125 1804.2149658203125 1804.2049560546875 1804.615966796875 1804.93896484375 1805.1099853515625 1804.9959716796875 1804.427001953125 1803.7459716796875
1189.1639404296875 1191.85595703125 1190.58203125 1194.217041015625 1198.883056640625 1204.9219970703125 1210.324951171875 1206.8759765625 1207.458984375 1214.0260009765625 1221.3609619140625 1226.0489501953125 1231.7080078125 1238.97705078125 1240.6839599609375 1241.2120361328125 1238.5780029296875 1235.2320556640625 1240.1309814453125 1241.6099853515625 1246.780029296875 1257.156005859375 1264.9320068359375 1273.1829833984375 1279.3260498046875 1282.3289794921875 1284.56103515625 1286.4949951171875 1294.10595703125 1302.1240234375 1305.1259765625 1306.7779541015625 1310.2540283203125 1313.0860595703125 1313.9580078125 1316.1090087890625 1321.47998046875 1328.2869873046875 1331.240966796875 1333.64599609375 1335.428955078125 1336.2230224609375 1335.708984375 1335.7249755859375 1335.904052734375 1336.35400390625 1336.2869873046875 1335.18798828125 1338.636962890625 1341.3179931640625 1343.25 1342.2430419921875 1337.2039794921875 1344.3160400390625 1353.5970458984375 1362.68896484375 1371.154052734375 1377.5989990234375 1385.18701171875 1389.6490478515625 1396.3909912109375 1403.405029296875 1411.1219482421875 1418.404052734375 1424.7550048828125 1431.1519775390625 1437.4510498046875 1444.4439697265625 1450.1929931640625 1457.5369873046875 1464.8929443359375 1466.594970703125 1467.7430419921875 1469.3260498046875 1470.0679931640625 1475.218017578125 1480.0419921875 1484.947998046875 1489.0989990234375 1490.3179931640625 1494.5970458984375 1505.376953125 1513.426025390625 1522.468994140625 1530.498046875 1538.240966796875 1547.029052734375 1552.3089599609375 1555.510986328125 1555.6800537109375 1560.260009765625 1565.4219970703125 1572.0140380859375 1576.6939697265625 1582.8509521484375 1590.02001953125 1597.7569580078125 1605.7860107421875 1610.947998046875 1615.66796875 1621.3480224609375 1623.85400390625 1633.14404296875 1641.8189697265625 1649.47900390625 1656.2879638671875 1662.260986328125 1668.217041015625 1675.0279541015625 1681.552978515625 1687.7010498046875 1693.4639892578125 1700.116943359375 1705.3780517578125 1711.3060302734375 1715.1390380859375 1721.0489501953125 1724.092041015625 1729.2939453125 1732.52001953125 1735.469970703125 1737.553955078125 1741.85205078125 1743.9630126953125 1745.8060302734375 1745.990966796875 1750.802978515625 1755.6810302734375 1761.4820556640625 1766.572998046875 1770.875 1773.885009765625 1777.89404296875 1782.1650390625 1785.01904296875 1787.1400146484375 1790.18994140625 1792.2130126953125 1796.8079833984375 1802.095947265625 1806.8289794921875 1811.9739990234375 1815.4439697265625 1819.31494140625 1823.5880126953125 1827.626953125 1831.0030517578125 1833.7330322265625 1833.9659423828125 1832.571044921875 1830.25 1826.7640380859375 1821.9749755859375 1816.6500244140625 1814.5360107421875 1811.0169677734375 1808.2239990234375 1807.1619873046875 1805.4000244140625 1801.3909912109375 1800.1729736328125 1800.677001953125 1799.4110107421875 1797.9820556640625 1799.6800537109375 1800.0970458984375 1800.029052734375 1799.6689453125 1799.4949951171875 1799.593017578125
1196.800048828125 1196.7220458984375 1200.89404296875 1198.9659423828125 1205.5899658203125 1210.54296875 1216.239990234375 1215.9969482421875 1211.8489990234375 1221.0260009765625 1227.386962890625 1231.949951171875 1237.376953125 1243.176025390625 1248.5880126953125 1249.7989501953125 1245.98095703125 1243.501953125 1247.60302734375 1248.822998046875 1252.571044921875 1255.6929931640625 1261.531005859375 1269.967041015625 1277.0570068359375 1285.7760009765625 1292.5439453125 1293.4429931640625 1296.7659912109375 1305.6109619140625 1312.6949462890625 1314.697021484375 1317.08203125 1320.530029296875 1322.3360595703125 1322.6429443359375 1326.800048828125 1332.655029296875 1335.3690185546875 1338.1800537109375 1340.866943359375 1341.9749755859375 1343.6829833984375 1344.666015625 1345.3380126953125 1346.176025390625 1345.0689697265625 1345.490966796875 1347.0169677734375 1349.6629638671875 1350.1810302734375 1348.9830322265625 1346.001953125 1344.81494140625 1351.365966796875 1360.4219970703125 1368.4150390625 1375.0369873046875 1383.052001953125 1390.1739501953125 1397.1309814453125 1403.363037109375 1410.6070556640625 1417.467041015625 1422.116943359375 1427.114990234375 1433.64794921875 1438.833984375 1444.615966796875 1452.593994140625 1456.14404296875 1457.1650390625 1457.72802734375 1457.2130126953125 1463.2550048828125 1468.675048828125 1473.571044921875 1477.72705078125 1482.2130126953125 1489.7149658203125 1498.842041015625 1506.5489501953125 1514.4620361328125 1523.407958984375 1532.074951171875 1539.85400390625 1548.3270263671875 1557.31103515625 1564.6650390625 1569.16796875 1567.18798828125 1571.5059814453125 1577.6240234375 1584.7490234375 1590.39794921875 1595.8189697265625 1602.3509521484375 1609.68603515625 1615.8759765625 1621.821044921875 1627.95703125 1633.0880126953125 1635.7960205078125 1638.5880126953125 1646.0360107421875 1654.612060546875 1661.43798828125 1667.801025390625 1674.3079833984375 1680.18701171875 1685.56005859375 1691.6829833984375 1696.7149658203125 1702.844970703125 1707.449951171875 1712.7330322265625 1717.0679931640625 1720.1719970703125 1724.406005859375 1726.7440185546875 1729.260986328125 1732.2969970703125 1736.718017578125 1738.487060546875 1742.654052734375 1746.8170166015625 1753.93505859375 1759.0660400390625 1762.4539794921875 1766.8570556640625 1771.56494140625 1775.0880126953125 1778.8199462890625 1782.011962890625 1785.10595703125 1788.720947265625 1792.3990478515625 1795.9840087890625 1799.905029296875 1804.001953125 1807.760986328125 1811.43896484375 1815.3919677734375 1818.6519775390625 1822.8570556640625 1826.6939697265625 1829.843994140625 1832.237060546875 1832.2349853515625 1830.9949951171875 1828.60595703125 1825.541015625 1822.112060546875 1816.02197265625 1812.737060546875 1809.02294921875 1806.4949951171875 1804.31201171875 1800.3590087890625 1795.2239990234375 1794.10400390625 1794.6009521484375 1791.60498046875 1793.98095703125 1794.2659912109375 1794.5689697265625 1794.1920166015625 1793.3790283203125 1793.113037109375 1793.9840087890625
1203.1939697265625 1202.98095703125 1207.300048828125 1208.8690185546875 1210.6280517578125 1217.0909423828125 1221.280029296875 1222.5970458984375 1220.052001953125 1221.425048828125 1230.1669921875 1239.8819580078125 1244.1639404296875 1248.4169921875 1253.927001953125 1257.905029296875 1252.4320068359375 1250.4610595703125 1255.8299560546875 1256.156005859375 1258.6209716796875 1264.0589599609375 1267.009033203125 1269.8609619140625 1278.041015625 1289.02099609375 1296.155029296875 1298.052001953125 1302.7760009765625 1311.35400390625 1317.0560302734375 1321.2840576171875 1323.3819580078125 1325.68798828125 1328.572998046875 1329.0579833984375 1333.58203125 1337.3990478515625 1340.239990234375 1343.012939453125 1346.365966796875 1348.1820068359375 1349.7349853515625 1351.281982421875 1353.1009521484375 1355.1419677734375 1355.0889892578125 1355.362060546875 1356.68701171875 1356.508056640625 1357.948974609375 1356.8370361328125 1352.2550048828125 1350.5860595703125 1350.7110595703125 1354.154052734375 1361.31298828125 1368.3819580078125 1378.2130126953125 1388.166015625 1393.0760498046875 1400.5550537109375 1407.373046875 1412.885986328125 1417.050048828125 1421.89794921875 1426.748046875 1431.7879638671875 1438.4749755859375 1445.5240478515625 1446.5849609375 1447.6109619140625 1449.8060302734375 1458.2540283203125 1463.97802734375 1467.9949951171875 1474.79296875 1481.6490478515625 1487.4119873046875 1495.008056640625 1501.864990234375 1509.1180419921875 1516.572998046875 1524.6219482421875 1532.925048828125 1541.1099853515625 1549.843017578125 1559.4189453125 1566.8809814453125 1572.1800537109375 1577.8580322265625 1580.2010498046875 1584.654052734375 1590.7230224609375 1594.626953125 1599.9219970703125 1606.1390380859375 1612.281005859375 1619.0040283203125 1624.6710205078125 1630.0570068359375 1635.9930419921875 1641.6109619140625 1646.60400390625 1651.635986328125 1657.4560546875 1662.0989990234375 1665.9730224609375 1671.89697265625 1677.8719482421875 1682.85302734375 1688.5550537109375 1694.032958984375 1698.969970703125 1703.218994140625 1706.803955078125 1711.60302734375 1716.2960205078125 1719.2139892578125 1721.613037109375 1725.0670166015625 1728.0679931640625 1732.1610107421875 1738.5899658203125 1744.1090087890625 1750.260986328125 1754.344970703125 1758.762939453125 1763.095947265625 1766.8919677734375 1771.2879638671875 1775.427978515625 1778.7669677734375 1781.4119873046875 1784.23095703125 1787.77099609375 1791.760009765625 1795.81494140625 1799.595947265625 1803.123046875 1806.782958984375 1810.7900390625 1814.4100341796875 1818.1650390625 1822.623046875 1825.81396484375 1828.4320068359375 1829.68798828125 1830.1080322265625 1829.0760498046875 1827.14794921875 1823.926025390625 1819.386962890625 1814.9820556640625 1810.1650390625 1806.2530517578125 1803.801025390625 1797.8929443359375 1793.9110107421875 1791.5830078125 1787.862060546875 1787.06005859375 1784.1300048828125 1784.529052734375 1787.5810546875 1788.8349609375 1786.947998046875 1785.6939697265625 1785.572998046875 1788.239013671875
1210.446044921875 1211.2099609375 1214.074951171875 1216.1280517578125 1216.406005859375 1222.7659912109375 1228.7869873046875 1231.4439697265625 1228.501953125 1231.1519775390625 1232.281982421875 1239.4239501953125 1248.6590576171875 1255.4549560546875 1259.4739990234375 1262.85205078125 1259.8199462890625 1256.1910400390625 1262.4969482421875 1265.1090087890625 1264.9990234375 1269.9119873046875 1275.0689697265625 1277.14697265625 1279.4110107421875 1286.04296875 1298.7509765625 1300.8800048828125 1308.0279541015625 1314.9100341796875 1321.926025390625 1326.803955078125 1329.2349853515625 1331.2850341796875 1334.2149658203125 1336.0140380859375 1338.2130126953125 1342.2900390625 1345.4959716796875 1348.56005859375 1351.0279541015625 1353.4420166015625 1355.258056640625 1356.8499755859375 1358.6500244140625 1360.8690185546875 1361.863037109375 1363.4219970703125 1363.8719482421875 1364.5589599609375 1364.8590087890625 1365.011962890625 1361.7559814453125 1357.531982421875 1357.0989990234375 1357.76904296875 1361.56201171875 1364.5069580078125 1369.833984375 1381.135986328125 1390.885009765625 1394.416015625 1402.22900390625 1406.4010009765625 1410.030029296875 1415.0140380859375 1420.635986328125 1427.072021484375 1432.3189697265625 1438.5870361328125 1440.1070556640625 1442.3580322265625 1453.719970703125 1463.0830078125 1474.6689453125 1478.032958984375 1483.0589599609375 1489.06103515625 1493.8690185546875 1500.29296875 1505.9849853515625 1512.7650146484375 1521.041015625 1528.073974609375 1535.925048828125 1543.3289794921875 1551.791015625 1559.760009765625 1567.635986328125 1574.7760009765625 1581.875 1587.5899658203125 1592.2249755859375 1596.66796875 1600.5379638671875 1605.781005859375 1610.9189453125 1616.5400390625 1621.498046875 1626.9959716796875 1632.9560546875 1639.406982421875 1644.93798828125 1651.470947265625 1656.9630126953125 1662.241943359375 1666.791015625 1668.9010009765625 1670.2879638671875 1674.8389892578125 1680.529052734375 1685.2650146484375 1690.4000244140625 1694.114990234375 1698.011962890625 1702.68896484375 1705.9210205078125 1710.6209716796875 1714.14404296875 1717.6309814453125 1722.5589599609375 1726.31494140625 1730.2900390625 1735.5849609375 1741.416015625 1747.0439453125 1752.7969970703125 1757.4520263671875 1762.9019775390625 1766.666015625 1770.8699951171875 1774.2540283203125 1777.2239990234375 1780.7020263671875 1783.85595703125 1787.385009765625 1791.5250244140625 1795.5489501953125 1799.4449462890625 1801.803955078125 1805.7469482421875 1809.54296875 1814.01904296875 1817.85498046875 1821.842041015625 1824.72802734375 1826.7960205078125 1827.6009521484375 1827.4990234375 1826.635986328125 1825.10302734375 1822.4449462890625 1817.2010498046875 1812.886962890625 1806.137939453125 1802.208984375 1798.93701171875 1793.3179931640625 1786.3699951171875 1785.7679443359375 1782.5360107421875 1779.2950439453125 1777.5849609375 1778.04296875 1780.5450439453125 1780.9849853515625 1779.2130126953125 1778.2679443359375 1778.552001953125 1780.7159423828125
1217.4549560546875 1217.322998046875 1220.737060546875 1223.491943359375 1225.218017578125 1226.5660400390625 1234.0660400390625 1237.656005859375 1236.583984375 1236.7359619140625 1239.06494140625 1243.2440185546875 1251.0789794921875 1259.0030517578125 1265.5369873046875 1265.81298828125 1265.93896484375 1263.5479736328125 1268.135986328125 1269.875 1271.9730224609375 1276.0 1281.8470458984375 1287.0770263671875 1290.9639892578125 1294.31298828125 1301.9749755859375 1304.5810546875 1311.1099853515625 1317.2900390625 1324.572021484375 1330.157958984375 1334.114990234375 1336.2159423828125 1337.7239990234375 1341.758056640625 1344.7359619140625 1347.39404296875 1350.2159423828125 1353.3260498046875 1355.93701171875 1358.27197265625 1360.81396484375 1362.741943359375 1364.8199462890625 1367.2879638671875 1369.60400390625 1371.4200439453125 1372.677978515625 1373.2320556640625 1373.2459716796875 1373.447021484375 1372.3590087890625 1366.39404296875 1367.0909423828125 1365.4119873046875 1366.8580322265625 1370.7249755859375 1373.739013671875 1376.843017578125 1383.9549560546875 1391.1590576171875 1391.6390380859375 1397.6839599609375 1403.9840087890625 1409.0419921875 1417.1929931640625 1422.427001953125 1427.3409423828125 1430.7490234375 1435.1240234375 1447.905029296875 1457.02197265625 1466.5849609375 1475.77099609375 1484.4320068359375 1490.4949951171875 1495.5780029296875 1500.428955078125 1505.0040283203125 1511.1839599609375 1516.8389892578125 1524.5059814453125 1532.7860107421875 1539.218994140625 1547.1839599609375 1555.3790283203125 1563.72802734375 1573.322998046875 1580.428955078125 1586.5059814453125 1593.10205078125 1598.6099853515625 1602.9849853515625 1607.5159912109375 1611.9599609375 1616.89697265625 1622.2950439453125 1625.8580322265625 1631.5009765625 1636.3570556640625 1642.718017578125 1649.4210205078125 1658.1099853515625 1662.4720458984375 1667.3489990234375 1671.8280029296875 1674.6820068359375 1677.01904296875 1679.760009765625 1682.1700439453125 1685.1519775390625 1688.8809814453125 1690.8089599609375 1694.4300537109375 1697.8070068359375 1701.18603515625 1704.990966796875 1710.405029296875 1714.5140380859375 1718.72900390625 1722.6070556640625 1728.02197265625 1733.27099609375 1739.1689453125 1744.3050537109375 1747.7239990234375 1752.260986328125 1758.490966796875 1763.5050048828125 1769.0770263671875 1773.5419921875 1776.2049560546875 1780.8310546875 1783.7769775390625 1787.2569580078125 1791.1390380859375 1794.5570068359375 1797.5980224609375 1801.114990234375 1804.5579833984375 1808.2349853515625 1813.0419921875 1817.52001953125 1821.2490234375 1823.7030029296875 1825.2769775390625 1825.5460205078125 1825.5830078125 1824.45703125 1822.5770263671875 1819.81396484375 1813.7060546875 1809.4620361328125 1803.6300048828125 1798.4539794921875 1791.0849609375 1787.821044921875 1782.8270263671875 1779.89404296875 1776.863037109375 1773.737060546875 1771.3900146484375 1771.635986328125 1773.1639404296875 1773.18798828125 1772.18701171875 1770.552001953125 1771.7039794921875 1773.89404296875
1225.154052734375 1224.634033203125 1227.93798828125 1230.9129638671875 1233.365966796875 1233.375 1237.7149658203125 1241.6839599609375 1243.7430419921875 1245.3890380859375 1248.614990234375 1248.093017578125 1254.489990234375 1262.93505859375 1271.529052734375 1272.22705078125 1272.5689697265625 1270.72705078125 1274.02099609375 1274.9959716796875 1277.5350341796875 1283.093017578125 1289.3060302734375 1294.10595703125 1296.9310302734375 1303.4639892578125 1307.9300537109375 1308.6409912109375 1314.4189453125 1319.177978515625 1326.2659912109375 1333.18603515625 1338.0050048828125 1340.741943359375 1343.93505859375 1346.9100341796875 1350.2969970703125 1352.64404296875 1355.5860595703125 1358.1529541015625 1360.3909912109375 1362.251953125 1366.009033203125 1368.4000244140625 1369.7979736328125 1372.4639892578125 1375.323974609375 1377.1240234375 1379.4759521484375 1380.864990234375 1381.1090087890625 1381.4530029296875 1380.75 1377.56494140625 1374.64794921875 1372.636962890625 1373.77001953125 1380.2740478515625 1386.967041015625 1385.9229736328125 1386.748046875 1391.373046875 1391.9520263671875 1402.906005859375 1408.79296875 1414.2679443359375 1419.0419921875 1423.8389892578125 1427.18603515625 1433.56103515625 1441.739990234375 1451.89697265625 1459.6929931640625 1468.446044921875 1477.748046875 1485.5970458984375 1493.677001953125 1501.6910400390625 1508.0880126953125 1511.2889404296875 1516.1689453125 1521.6490478515625 1528.6510009765625 1534.64697265625 1542.427001953125 1550.7120361328125 1558.6820068359375 1568.9000244140625 1578.748046875 1585.261962890625 1591.779052734375 1598.0179443359375 1603.4739990234375 1608.5489501953125 1612.8480224609375 1617.012939453125 1622.166015625 1626.6739501953125 1631.45703125 1635.8349609375 1640.5760498046875 1646.781005859375 1653.4019775390625 1662.3590087890625 1666.7049560546875 1671.56201171875 1676.553955078125 1680.321044921875 1684.18701171875 1686.02099609375 1687.948974609375 1689.81201171875 1692.739013671875 1697.3489990234375 1701.260009765625 1703.427001953125 1705.572998046875 1709.1939697265625 1711.5269775390625 1715.7249755859375 1720.6180419921875 1724.1070556640625 1728.5279541015625 1734.8179931640625 1738.0999755859375 1742.626953125 1746.948974609375 1751.6240234375 1757.491943359375 1762.64697265625 1768.2060546875 1773.052001953125 1778.3289794921875 1781.302001953125 1784.3380126953125 1788.0050048828125 1791.1009521484375 1794.7950439453125 1797.947021484375 1801.2850341796875 1804.842041015625 1808.6820068359375 1812.4820556640625 1816.4320068359375 1819.8170166015625 1821.93505859375 1823.447998046875 1823.76904296875 1823.5789794921875 1822.2760009765625 1820.5050048828125 1817.4840087890625 1812.4300537109375 1806.7349853515625 1802.9830322265625 1795.9949951171875 1787.989990234375 1781.91796875 1777.52099609375 1773.8809814453125 1770.1739501953125 1768.3470458984375 1766.3790283203125 1764.886962890625 1766.1949462890625 1766.3740234375 1766.1490478515625 1764.175048828125 1764.4119873046875 1766.6319580078125
1232.656005859375 1234.7020263671875 1234.197998046875 1238.126953125 1241.5389404296875 1242.2559814453125 1243.1629638671875 1247.7779541015625 1251.9659423828125 1254.26904296875 1257.8310546875 1256.5169677734375 1257.89501953125 1264.6409912109375 1273.6180419921875 1277.1639404296875 1278.5469970703125 1277.155029296875 1278.468017578125 1280.3509521484375 1283.27294921875 1288.2340087890625 1295.0059814453125 1301.0279541015625 1303.6929931640625 1309.64404296875 1311.572021484375 1312.583984375 1318.9320068359375 1322.16796875 1327.3990478515625 1333.697021484375 1341.166015625 1346.001953125 1349.1639404296875 1352.02294921875 1353.91796875 1356.655029296875 1358.946044921875 1361.0889892578125 1363.6390380859375 1366.1090087890625 1369.947998046875 1372.35205078125 1374.593017578125 1376.6199951171875 1379.6700439453125 1383.0699462890625 1385.780029296875 1388.343994140625 1389.0550537109375 1390.0030517578125 1389.43896484375 1386.48095703125 1382.8470458984375 1380.051025390625 1381.0670166015625 1386.7259521484375 1393.5899658203125 1396.0689697265625 1397.385986328125 1398.0989990234375 1396.9539794921875 1404.0880126953125 1410.3900146484375 1416.9759521484375 1423.18701171875 1427.801025390625 1432.863037109375 1438.176025390625 1445.4339599609375 1454.2049560546875 1462.5030517578125 1470.43994140625 1478.10595703125 1487.18505859375 1494.2320556640625 1502.43505859375 1510.3389892578125 1517.5550537109375 1520.991943359375 1526.7220458984375 1532.822998046875 1538.488037109375 1546.81005859375 1553.89404296875 1562.9189453125 1572.883056640625 1580.758056640625 1588.7840576171875 1595.56494140625 1601.4110107421875 1606.7540283203125 1611.5560302734375 1615.9449462890625 1619.56298828125 1624.9019775390625 1630.2850341796875 1635.677978515625 1639.1290283203125 1644.008056640625 1650.218994140625 1658.6259765625 1665.3719482421875 1669.5260009765625 1674.1009521484375 1679.4930419921875 1684.279052734375 1689.4539794921875 1692.5140380859375 1693.31201171875 1694.77001953125 1696.6519775390625 1699.0660400390625 1703.85400390625 1708.6820068359375 1710.6600341796875 1712.56494140625 1715.5450439453125 1719.9410400390625 1724.72802734375 1729.18994140625 1732.8160400390625 1736.06005859375 1741.031005859375 1745.593994140625 1749.1280517578125 1753.8709716796875 1757.968994140625 1762.4019775390625 1767.074951171875 1773.2960205078125 1778.22802734375 1781.5240478515625 1783.9840087890625 1787.458984375 1791.666015625 1796.7939453125 1799.8680419921875 1803.4940185546875 1806.2430419921875 1809.833984375 1813.6429443359375 1816.93896484375 1819.113037109375 1820.18701171875 1821.115966796875 1821.5579833984375 1821.416015625 1820.4439697265625 1817.241943359375 1812.4000244140625 1810.083984375 1804.9969482421875 1800.5780029296875 1793.2080078125 1786.5899658203125 1779.7449951171875 1774.0560302734375 1768.751953125 1765.1490478515625 1763.157958984375 1761.008056640625 1759.885009765625 1759.4320068359375 1760.3680419921875 1759.116943359375 1758.5050048828125 1758.386962890625 1759.9510498046875
1238.8470458984375 1240.2099609375 1240.7080078125 1247.7760009765625 1247.7669677734375 1250.156982421875 1249.1929931640625 1253.18701171875 1259.1199951171875 1263.468017578125 1266.5660400390625 1266.219970703125 1267.4029541015625 1272.302978515625 1275.9549560546875 1279.508056640625 1282.9830322265625 1280.9759521484375 1281.2340087890625 1283.1590576171875 1288.468994140625 1293.43994140625 1299.7989501953125 1307.823974609375 1313.239990234375 1314.387939453125 1315.6419677734375 1317.35498046875 1323.6800537109375 1329.8489990234375 1332.81298828125 1336.532958984375 1341.6510009765625 1349.5909423828125 1354.2889404296875 1357.7550048828125 1358.3929443359375 1359.4329833984375 1361.4510498046875 1363.81201171875 1366.56103515625 1369.6009521484375 1373.489990234375 1375.782958984375 1378.802001953125 1381.552001953125 1384.43603515625 1387.906982421875 1390.8509521484375 1394.22900390625 1396.0040283203125 1396.740966796875 1397.5679931640625 1395.29296875 1391.4840087890625 1388.4830322265625 1387.23095703125 1390.51904296875 1397.5999755859375 1402.3609619140625 1403.383056640625 1404.1309814453125 1403.4219970703125 1406.2989501953125 1411.842041015625 1417.60595703125 1425.906005859375 1432.6109619140625 1437.6199951171875 1442.52197265625 1448.9649658203125 1455.321044921875 1462.739990234375 1470.9169921875 1478.990966796875 1487.489013671875 1494.93896484375 1502.1920166015625 1510.4599609375 1518.4139404296875 1525.052001953125 1530.6519775390625 1538.1199951171875 1543.3409423828125 1549.258056640625 1557.7230224609375 1565.7020263671875 1573.6929931640625 1581.35498046875 1589.343994140625 1596.8690185546875 1602.45703125 1607.7950439453125 1612.072021484375 1617.2569580078125 1622.5469970703125 1627.2239990234375 1632.615966796875 1637.6409912109375 1641.636962890625 1647.4200439453125 1653.7769775390625 1661.449951171875 1667.136962890625 1672.0250244140625 1676.509033203125 1681.782958984375 1687.9649658203125 1692.4759521484375 1697.2960205078125 1698.8599853515625 1701.112060546875 1703.050048828125 1704.7490234375 1706.5770263671875 1710.5689697265625 1714.7110595703125 1717.967041015625 1720.89501953125 1723.623046875 1728.1290283203125 1732.5269775390625 1736.9959716796875 1741.2919921875 1743.3179931640625 1747.718994140625 1751.1429443359375 1755.27294921875 1759.7159423828125 1764.2349853515625 1768.7230224609375 1773.5880126953125 1777.6309814453125 1780.6600341796875 1784.23095703125 1788.14501953125 1793.166015625 1797.3470458984375 1801.958984375 1805.5389404296875 1807.8070068359375 1810.9739990234375 1814.041015625 1816.60302734375 1817.8389892578125 1818.9169921875 1818.7330322265625 1818.8809814453125 1818.68798828125 1817.593017578125 1814.25 1809.114013671875 1804.5830078125 1802.5849609375 1797.3509521484375 1790.8740234375 1784.83203125 1777.6600341796875 1770.7039794921875 1766.446044921875 1762.2869873046875 1757.5030517578125 1754.3389892578125 1753.35595703125 1753.8909912109375 1754.8819580078125 1756.7950439453125 1752.8160400390625 1752.4830322265625 1753.0040283203125
1243.677978515625 1246.8060302734375 1249.3170166015625 1251.8299560546875 1255.051025390625 1258.9830322265625 1258.93701171875 1257.1240234375 1263.93896484375 1268.8399658203125 1273.4959716796875 1274.4139404296875 1272.7359619140625 1277.3740234375 1280.406005859375 1286.2449951171875 1286.530029296875 1285.3780517578125 1286.427001953125 1290.1090087890625 1295.1710205078125 1300.1820068359375 1305.9329833984375 1311.865966796875 1317.7259521484375 1319.0980224609375 1320.8089599609375 1320.9649658203125 1327.0579833984375 1333.9560546875 1338.822998046875 1343.114013671875 1349.8740234375 1354.008056640625 1357.18798828125 1359.541015625 1361.0849609375 1362.385009765625 1363.5389404296875 1366.68701171875 1369.0770263671875 1372.6949462890625 1376.6820068359375 1379.154052734375 1382.300048828125 1389.4210205078125 1392.3470458984375 1392.633056640625 1395.3470458984375 1398.8389892578125 1402.7230224609375 1404.4150390625 1405.2860107421875 1403.56396484375 1399.5999755859375 1396.3719482421875 1395.01904296875 1396.406982421875 1401.991943359375 1407.06494140625 1409.8399658203125 1412.4410400390625 1412.18994140625 1412.9090576171875 1414.3690185546875 1419.125 1427.7440185546875 1437.958984375 1442.239013671875 1446.508056640625 1452.446044921875 1459.135009765625 1465.5830078125 1472.197998046875 1479.4110107421875 1487.9520263671875 1495.3360595703125 1503.01904296875 1509.93896484375 1516.949951171875 1524.2679443359375 1533.5369873046875 1541.781005859375 1548.218017578125 1554.491943359375 1560.7149658203125 1568.7349853515625 1576.3280029296875 1582.52294921875 1589.06201171875 1595.7669677734375 1602.0889892578125 1607.1219482421875 1612.708984375 1618.1519775390625 1623.593017578125 1628.489013671875 1633.708984375 1639.375 1643.666015625 1649.262939453125 1654.7640380859375 1661.0989990234375 1667.18896484375 1672.9620361328125 1678.123046875 1684.300048828125 1689.9530029296875 1694.6910400390625 1699.31005859375 1702.2989501953125 1705.1810302734375 1707.0889892578125 1708.9219970703125 1711.7220458984375 1714.531982421875 1718.1319580078125 1722.125 1725.6490478515625 1729.0260009765625 1732.5880126953125 1736.696044921875 1741.053955078125 1745.737060546875 1749.218994140625 1751.6490478515625 1755.125 1758.2900390625 1763.5670166015625 1767.156982421875 1770.4510498046875 1774.2249755859375 1778.3299560546875 1781.2779541015625 1784.760009765625 1788.8809814453125 1793.802978515625 1798.9560546875 1803.7490234375 1806.6419677734375 1808.6929931640625 1811.0260009765625 1813.3819580078125 1815.5269775390625 1816.375 1816.7340087890625 1816.4730224609375 1815.8470458984375 1815.3790283203125 1814.5059814453125 1810.157958984375 1806.22705078125 1802.1510009765625 1797.095947265625 1792.60400390625 1787.8330078125 1781.9820556640625 1774.7919921875 1768.2900390625 1763.72802734375 1758.239013671875 1751.5770263671875 1749.2919921875 1746.9930419921875 1749.010009765625 1750.1920166015625 1750.0980224609375 1747.4560546875 1747.14404296875 1746.01904296875
1246.1419677734375 1251.4320068359375 1255.998046875 1258.8489990234375 1262.199951171875 1264.3179931640625 1265.2220458984375 1264.7259521484375 1268.4649658203125 1273.8270263671875 1280.135009765625 1280.282958984375 1278.925048828125 1283.800048828125 1287.52099609375 1290.7449951171875 1291.251953125 1292.1109619140625 1293.0570068359375 1300.0849609375 1300.8890380859375 1307.260986328125 1313.9019775390625 1319.8699951171875 1322.5379638671875 1324.8280029296875 1327.2359619140625 1325.2220458984375 1329.8349609375 1336.4010009765625 1341.7869873046875 1348.3349609375 1353.1729736328125 1356.197998046875 1359.2320556640625 1361.7919921875 1362.66796875 1364.5030517578125 1365.73095703125 1369.092041015625 1371.6490478515625 1375.4949951171875 1379.7349853515625 1382.6490478515625 1385.5999755859375 1390.93603515625 1398.071044921875 1397.322998046875 1399.2900390625 1402.802001953125 1406.6820068359375 1409.6209716796875 1411.927001953125 1411.81005859375 1411.4019775390625 1405.91796875 1403.1300048828125 1403.93896484375 1405.9090576171875 1409.89501953125 1413.5670166015625 1416.06494140625 1417.9930419921875 1419.6390380859375 1418.008056640625 1421.6839599609375 1428.676025390625 1437.991943359375 1444.2340087890625 1449.2779541015625 1455.7330322265625 1463.3160400390625 1469.8070068359375 1475.5350341796875 1481.656005859375 1488.5069580078125 1495.656982421875 1502.8599853515625 1510.1490478515625 1519.239013671875 1525.93896484375 1533.656005859375 1541.634033203125 1549.8349609375 1556.31103515625 1563.2340087890625 1570.3990478515625 1575.989013671875 1582.2249755859375 1587.9949951171875 1594.5860595703125 1599.5999755859375 1605.074951171875 1612.051025390625 1617.9129638671875 1623.4940185546875 1628.625 1634.68896484375 1639.6949462890625 1644.510009765625 1649.887939453125 1655.6839599609375 1660.81103515625 1666.14697265625 1673.35302734375 1680.032958984375 1686.279052734375 1691.907958984375 1696.3489990234375 1700.737060546875 1704.56494140625 1707.39794921875 1709.43701171875 1712.1309814453125 1715.3199462890625 1718.6419677734375 1721.1190185546875 1724.510009765625 1729.532958984375 1733.135986328125 1736.7969970703125 1739.8050537109375 1743.5889892578125 1746.97998046875 1750.154052734375 1753.81298828125 1757.823974609375 1761.85595703125 1765.89794921875 1769.4959716796875 1773.258056640625 1776.529052734375 1780.2669677734375 1783.60302734375 1786.8900146484375 1790.968017578125 1795.8189697265625 1800.2540283203125 1804.449951171875 1806.9580078125 1808.906005859375 1810.8280029296875 1812.676025390625 1813.8680419921875 1814.6070556640625 1814.8599853515625 1814.2860107421875 1813.406005859375 1812.47900390625 1811.759033203125 1808.947998046875 1804.282958984375 1799.2979736328125 1793.2769775390625 1787.6590576171875 1782.884033203125 1776.85498046875 1771.916015625 1767.8330078125 1761.8819580078125 1754.9610595703125 1748.490966796875 1745.3360595703125 1742.7139892578125 1742.4759521484375 1745.1009521484375 1746.0489501953125 1742.615966796875 1742.81396484375 1738.7249755859375
1247.3919677734375 1253.5479736328125 1257.14404296875 1260.7469482421875 1264.0899658203125 1267.04296875 1270.02001953125 1272.0040283203125 1274.678955078125 1281.553955078125 1283.593017578125 1287.3470458984375 1288.449951171875 1289.1689453125 1292.68603515625 1295.7340087890625 1295.426025390625 1298.5040283203125 1299.9019775390625 1303.927001953125 1307.43505859375 1312.6419677734375 1321.905029296875 1327.5279541015625 1328.06005859375 1329.5240478515625 1330.9990234375 1330.470947265625 1331.47705078125 1338.2969970703125 1345.1419677734375 1351.9539794921875 1356.3299560546875 1359.9119873046875 1361.427001953125 1363.6949462890625 1365.5980224609375 1367.134033203125 1369.1099853515625 1370.906005859375 1374.3740234375 1378.0379638671875 1382.6400146484375 1385.748046875 1389.1719970703125 1391.39404296875 1398.626953125 1400.56494140625 1403.0269775390625 1406.386962890625 1409.4990234375 1413.1070556640625 1416.2769775390625 1417.636962890625 1417.302978515625 1412.1309814453125 1411.81103515625 1411.220947265625 1412.7340087890625 1415.4510498046875 1419.112060546875 1422.616943359375 1424.6280517578125 1427.1820068359375 1424.3499755859375 1424.511962890625 1430.2039794921875 1437.406982421875 1446.2989501953125 1452.68505859375 1459.5899658203125 1466.68896484375 1472.677978515625 1479.4420166015625 1486.4849853515625 1493.2509765625 1499.5980224609375 1507.64501953125 1512.9739990234375 1520.6209716796875 1528.5260009765625 1536.27001953125 1544.3050537109375 1549.43505859375 1557.636962890625 1563.3609619140625 1569.9859619140625 1575.282958984375 1579.760009765625 1585.2449951171875 1591.511962890625 1598.2960205078125 1604.5679931640625 1611.428955078125 1618.25 1624.4520263671875 1629.43505859375 1634.9730224609375 1640.7430419921875 1644.3580322265625 1649.73095703125 1655.72900390625 1661.8599853515625 1668.031005859375 1675.489013671875 1681.0980224609375 1687.123046875 1692.9410400390625 1695.72802734375 1700.7030029296875 1705.22705078125 1708.781005859375 1712.2919921875 1714.9739990234375 1718.2449951171875 1722.2569580078125 1724.43896484375 1727.862060546875 1732.04296875 1736.0980224609375 1739.0069580078125 1742.3709716796875 1744.8060302734375 1747.4410400390625 1750.916015625 1754.7640380859375 1758.7540283203125 1762.8800048828125 1767.2469482421875 1772.0150146484375 1775.64501953125 1779.303955078125 1782.824951171875 1785.85498046875 1789.998046875 1793.9580078125 1798.218994140625 1802.1309814453125 1805.0009765625 1807.0699462890625 1808.5660400390625 1809.739990234375 1810.7979736328125 1812.0989990234375 1812.5140380859375 1812.45703125 1812.239013671875 1811.0980224609375 1809.947021484375 1808.279052734375 1807.10205078125 1802.572021484375 1795.8990478515625 1789.3909912109375 1782.1519775390625 1776.9219970703125 1772.9100341796875 1770.52197265625 1766.2879638671875 1760.759033203125 1754.93896484375 1747.0450439453125 1742.02099609375 1740.001953125 1736.81201171875 1738.5450439453125 1739.489013671875 1739.2449951171875 1739.7740478515625 1735.5419921875
1247.1400146484375 1254.3370361328125 1258.0059814453125 1261.2840576171875 1265.0880126953125 1268.5679931640625 1271.5689697265625 1274.594970703125 1278.22900390625 1282.83203125 1286.18994140625 1290.14501953125 1295.676025390625 1295.949951171875 1297.6600341796875 1300.5069580078125 1301.2349853515625 1304.051025390625 1306.5369873046875 1310.22705078125 1314.6400146484375 1323.7659912109375 1329.6009521484375 1332.7259521484375 1334.60498046875 1335.1080322265625 1334.2860107421875 1334.9520263671875 1334.60302734375 1339.6700439453125 1346.800048828125 1354.177001953125 1358.991943359375 1363.0670166015625 1365.26904296875 1366.8270263671875 1368.321044921875 1369.76904296875 1371.9639892578125 1374.093017578125 1376.81396484375 1381.3759765625 1385.2159423828125 1388.512939453125 1391.5880126953125 1394.6199951171875 1397.8780517578125 1402.0150146484375 1405.781005859375 1408.8389892578125 1412.2760009765625 1415.2650146484375 1418.656005859375 1421.3890380859375 1423.4150390625 1421.2969970703125 1419.3819580078125 1421.5460205078125 1420.8900146484375 1422.8990478515625 1425.9630126953125 1428.08203125 1431.0999755859375 1432.8819580078125 1431.72900390625 1430.5350341796875 1431.9169921875 1436.7259521484375 1443.95703125 1451.0560302734375 1459.470947265625 1467.02099609375 1474.0439453125 1482.2330322265625 1489.428955078125 1496.322021484375 1503.8310546875 1510.18896484375 1517.322998046875 1522.740966796875 1529.843017578125 1535.8680419921875 1541.001953125 1546.7080078125 1551.864990234375 1559.4959716796875 1564.39794921875 1569.751953125 1576.4520263671875 1581.79296875 1589.137939453125 1597.8509521484375 1603.7669677734375 1610.18505859375 1616.8079833984375 1623.666015625 1629.1829833984375 1634.595947265625 1639.6109619140625 1646.376953125 1654.06298828125 1659.7060546875 1665.8609619140625 1672.4029541015625 1676.9029541015625 1682.383056640625 1687.3399658203125 1692.4010009765625 1695.6519775390625 1699.946044921875 1704.3470458984375 1708.4239501953125 1712.2950439453125 1715.532958984375 1718.9730224609375 1722.52294921875 1726.343017578125 1728.5450439453125 1731.8609619140625 1735.7669677734375 1739.501953125 1743.4429931640625 1746.29296875 1748.85302734375 1752.0860595703125 1755.6829833984375 1759.81396484375 1764.759033203125 1769.448974609375 1774.3070068359375 1778.4639892578125 1783.1070556640625 1786.0360107421875 1789.1319580078125 1793.010009765625 1797.3260498046875 1801.68701171875 1805.14599609375 1806.7130126953125 1807.779052734375 1808.1409912109375 1808.6219482421875 1809.5340576171875 1810.6319580078125 1810.7060546875 1810.3759765625 1809.821044921875 1809.02294921875 1807.9859619140625 1807.35205078125 1804.508056640625 1798.748046875 1792.7850341796875 1785.01904296875 1778.3480224609375 1774.0830078125 1769.4560546875 1765.2030029296875 1761.9599609375 1757.6820068359375 1754.427978515625 1748.998046875 1743.45703125 1737.2430419921875 1733.875 1732.0379638671875 1732.3489990234375 1735.251953125 1734.5250244140625 1733.4630126953125
1247.8360595703125 1253.64501953125 1259.0 1262.6500244140625 1266.4169921875 1269.593017578125 1272.8609619140625 1276.64697265625 1280.5469970703125 1285.1669921875 1288.7850341796875 1296.699951171875 1301.3370361328125 1304.364013671875 1305.3570556640625 1304.7679443359375 1306.6519775390625 1310.0889892578125 1312.6510009765625 1317.22900390625 1321.54296875 1329.5269775390625 1335.9439697265625 1338.218017578125 1339.635986328125 1339.0250244140625 1338.56103515625 1339.4599609375 1339.083984375 1341.72900390625 1347.3800048828125 1354.3699951171875 1360.2779541015625 1365.2850341796875 1368.5909423828125 1369.990966796875 1370.866943359375 1373.427001953125 1375.407958984375 1377.281005859375 1379.375 1383.3570556640625 1387.43994140625 1390.7490234375 1393.5660400390625 1396.760986328125 1400.3199462890625 1404.4229736328125 1408.155029296875 1412.06298828125 1414.3790283203125 1417.83203125 1420.2239990234375 1423.113037109375 1426.821044921875 1428.041015625 1427.02294921875 1428.8580322265625 1429.6719970703125 1431.3070068359375 1433.5260009765625 1434.98095703125 1437.4539794921875 1438.6939697265625 1438.468017578125 1437.093017578125 1435.9930419921875 1438.998046875 1442.9820556640625 1449.8699951171875 1458.4100341796875 1466.666015625 1474.77099609375 1483.4339599609375 1488.81396484375 1495.2330322265625 1501.68994140625 1509.510009765625 1514.4210205078125 1518.5860595703125 1523.615966796875 1528.31005859375 1533.2669677734375 1539.6099853515625 1546.4720458984375 1552.634033203125 1559.4420166015625 1565.3509521484375 1571.14404296875 1577.656982421875 1585.863037109375 1593.7640380859375 1600.4420166015625 1606.3780517578125 1613.2989501953125 1621.2650146484375 1628.2039794921875 1634.2960205078125 1641.0419921875 1647.6390380859375 1654.656005859375 1661.5159912109375 1667.8409423828125 1672.989013671875 1678.0260009765625 1683.759033203125 1689.489013671875 1692.501953125 1695.9150390625 1699.0550537109375 1702.258056640625 1707.762939453125 1711.39599609375 1714.251953125 1717.68701171875 1721.626953125 1725.3570556640625 1727.6610107421875 1730.0810546875 1733.2049560546875 1737.6669921875 1743.7769775390625 1747.2349853515625 1749.8470458984375 1752.9580078125 1756.1099853515625 1760.779052734375 1765.8919677734375 1771.0970458984375 1776.14599609375 1781.0889892578125 1785.822021484375 1789.032958984375 1792.406005859375 1796.2340087890625 1801.052978515625 1804.39794921875 1807.876953125 1808.1910400390625 1807.3199462890625 1807.2939453125 1807.718994140625 1808.2969970703125 1809.240966796875 1808.948974609375 1808.2010498046875 1807.614990234375 1807.01904296875 1805.876953125 1806.3690185546875 1801.373046875 1795.010009765625 1789.259033203125 1781.573974609375 1777.2969970703125 1772.0880126953125 1765.89794921875 1761.4000244140625 1756.56396484375 1752.303955078125 1749.35400390625 1746.7139892578125 1741.198974609375 1737.2239990234375 1736.071044921875 1728.39599609375 1726.64794921875 1728.342041015625 1729.8170166015625 1729.27294921875
1252.4010009765625 1255.22705078125 1260.0179443359375 1263.677978515625 1266.969970703125 1270.281005859375 1273.845947265625 1277.8990478515625 1281.8170166015625 1286.06005859375 1291.1070556640625 1297.7850341796875 1303.4749755859375 1307.2879638671875 1311.6519775390625 1310.97705078125 1312.0660400390625 1318.5489501953125 1321.7080078125 1324.68798828125 1329.125 1338.3919677734375 1342.302978515625 1344.3470458984375 1344.9820556640625 1342.5799560546875 1343.4560546875 1343.7840576171875 1344.60400390625 1346.3070068359375 1349.7509765625 1353.73095703125 1361.97802734375 1367.9090576171875 1370.5059814453125 1372.5250244140625 1374.10205078125 1375.469970703125 1377.89599609375 1379.9840087890625 1382.2550048828125 1385.3070068359375 1388.6929931640625 1391.7430419921875 1395.1529541015625 1398.58203125 1402.6290283203125 1406.4219970703125 1410.1939697265625 1413.77001953125 1417.8489990234375 1420.68603515625 1422.873046875 1425.1929931640625 1428.06201171875 1432.2139892578125 1431.6180419921875 1433.6820068359375 1437.5970458984375 1438.2130126953125 1439.885986328125 1442.343994140625 1444.0419921875 1447.1070556640625 1446.51904296875 1442.030029296875 1441.1920166015625 1442.9849853515625 1446.0889892578125 1450.5009765625 1456.343017578125 1464.1929931640625 1471.26904296875 1479.0970458984375 1486.18994140625 1490.8990478515625 1497.571044921875 1503.1009521484375 1507.4639892578125 1513.2569580078125 1517.43701171875 1522.85595703125 1529.385009765625 1534.8060302734375 1541.89404296875 1546.8800048828125 1553.6839599609375 1559.9110107421875 1566.9210205078125 1573.489990234375 1581.4219970703125 1588.093994140625 1595.7030029296875 1603.4229736328125 1611.824951171875 1621.22802734375 1628.675048828125 1634.8310546875 1641.3310546875 1647.387939453125 1655.43505859375 1662.885986328125 1668.280029296875 1674.02099609375 1679.697998046875 1685.5670166015625 1690.134033203125 1692.8070068359375 1696.7919921875 1700.925048828125 1704.31103515625 1706.9560546875 1711.675048828125 1716.0560302734375 1720.41796875 1722.9150390625 1725.155029296875 1727.2889404296875 1729.873046875 1732.345947265625 1736.5159912109375 1741.7030029296875 1746.4840087890625 1750.282958984375 1753.300048828125 1756.9019775390625 1762.126953125 1767.220947265625 1772.615966796875 1778.0479736328125 1783.166015625 1787.2969970703125 1790.2469482421875 1794.5419921875 1798.166015625 1802.3690185546875 1805.676025390625 1807.759033203125 1807.3280029296875 1805.7340087890625 1805.7919921875 1806.759033203125 1807.0880126953125 1807.4129638671875 1807.010986328125 1805.613037109375 1804.8580322265625 1804.4749755859375 1805.4090576171875 1804.7860107421875 1798.9959716796875 1793.3380126953125 1786.77197265625 1779.822998046875 1775.2080078125 1769.675048828125 1764.5830078125 1758.876953125 1755.5179443359375 1751.9749755859375 1747.7459716796875 1742.6729736328125 1738.75 1737.3480224609375 1735.8089599609375 1730.636962890625 1723.884033203125 1722.6739501953125 1724.2760009765625 1726.8050537109375
1254.8990478515625 1257.4560546875 1260.7889404296875 1264.116943359375 1266.9429931640625 1270.5780029296875 1274.5460205078125 1278.5450439453125 1282.6510009765625 1287.531005859375 1293.64697265625 1299.1829833984375 1304.7039794921875 1310.593017578125 1316.8590087890625 1317.2440185546875 1317.7769775390625 1324.93798828125 1330.0970458984375 1334.4739990234375 1341.531005859375 1345.875 1348.10302734375 1348.9940185546875 1348.2659912109375 1346.9329833984375 1347.0660400390625 1348.0870361328125 1349.0479736328125 1351.9820556640625 1351.3089599609375 1355.386962890625 1361.1309814453125 1367.66796875 1372.8890380859375 1375.5350341796875 1376.761962890625 1378.52099609375 1380.4659423828125 1382.802978515625 1386.6259765625 1388.3509521484375 1390.9449462890625 1393.155029296875 1396.802978515625 1399.9420166015625 1403.595947265625 1407.58203125 1411.406005859375 1414.760009765625 1419.0689697265625 1423.218017578125 1424.884033203125 1427.7099609375 1430.6619873046875 1434.4739990234375 1437.3599853515625 1439.864990234375 1442.8409423828125 1446.47802734375 1447.3790283203125 1449.373046875 1451.3759765625 1453.45703125 1453.89599609375 1451.77099609375 1446.9139404296875 1447.1429443359375 1450.7359619140625 1453.0269775390625 1457.041015625 1463.135009765625 1468.58203125 1474.4630126953125 1480.3070068359375 1485.958984375 1491.10302734375 1497.0379638671875 1502.1639404296875 1506.927001953125 1512.927001953125 1519.2230224609375 1524.322998046875 1530.02001953125 1539.1429443359375 1547.636962890625 1555.425048828125 1563.4659423828125 1569.5269775390625 1576.2659912109375 1582.9649658203125 1589.032958984375 1596.863037109375 1603.68798828125 1612.4320068359375 1620.383056640625 1628.81005859375 1635.3280029296875 1641.362060546875 1648.135986328125 1655.824951171875 1662.18603515625 1668.6600341796875 1674.8289794921875 1682.2110595703125 1688.2080078125 1692.125 1694.1209716796875 1697.427001953125 1702.5389404296875 1705.5400390625 1709.1829833984375 1713.3349609375 1716.9010009765625 1720.27001953125 1724.967041015625 1726.9530029296875 1729.0419921875 1730.7679443359375 1732.5379638671875 1735.791015625 1741.35595703125 1747.0830078125 1751.0059814453125 1754.5989990234375 1758.3680419921875 1763.468017578125 1768.4019775390625 1773.0870361328125 1777.333984375 1781.8740234375 1785.0350341796875 1789.2010498046875 1793.5849609375 1797.81103515625 1802.196044921875 1805.1080322265625 1804.75 1804.0040283203125 1803.9749755859375 1803.93896484375 1804.718017578125 1805.3270263671875 1805.6929931640625 1805.323974609375 1804.615966796875 1803.0550537109375 1804.176025390625 1802.4169921875 1802.85302734375 1797.5240478515625 1791.1529541015625 1785.385009765625 1780.5240478515625 1775.2330322265625 1771.032958984375 1764.904052734375 1762.68701171875 1761.2049560546875 1758.70703125 1753.239013671875 1746.6109619140625 1741.6669921875 1735.2869873046875 1729.741943359375 1727.3800048828125 1725.583984375 1720.6109619140625 1718.6099853515625 1720.5550537109375
1256.3330078125 1259.032958984375 1262.2060546875 1265.27099609375 1268.031005859375 1271.52001953125 1275.262939453125 1278.8790283203125 1282.3719482421875 1288.239013671875 1293.6199951171875 1299.885009765625 1306.3310546875 1312.77099609375 1319.1590576171875 1322.4329833984375 1324.948974609375 1331.1290283203125 1336.14599609375 1342.6429443359375 1348.907958984375 1352.45703125 1353.1070556640625 1353.8089599609375 1353.41796875 1354.051025390625 1354.052001953125 1354.06005859375 1355.053955078125 1355.9029541015625 1358.0780029296875 1358.4560546875 1361.1070556640625 1366.5770263671875 1373.5479736328125 1378.6090087890625 1380.676025390625 1381.9429931640625 1383.8330078125 1385.904052734375 1389.3170166015625 1392.47802734375 1394.301025390625 1396.3260498046875 1399.3780517578125 1402.06005859375 1405.218017578125 1408.8800048828125 1412.43896484375 1416.6639404296875 1420.1939697265625 1424.7159423828125 1427.39794921875 1430.01904296875 1433.89794921875 1438.001953125 1441.5579833984375 1444.583984375 1448.157958984375 1450.60205078125 1453.259033203125 1456.135986328125 1458.16796875 1460.0050048828125 1460.8499755859375 1457.843994140625 1451.4300537109375 1451.2869873046875 1455.199951171875 1458.740966796875 1460.52197265625 1463.884033203125 1467.593994140625 1472.762939453125 1478.0069580078125 1483.68701171875 1489.2779541015625 1494.1920166015625 1498.7559814453125 1505.197021484375 1512.6519775390625 1520.676025390625 1526.9329833984375 1533.7430419921875 1541.907958984375 1551.949951171875 1558.81201171875 1565.2750244140625 1573.3680419921875 1580.3310546875 1588.0250244140625 1595.47705078125 1600.4169921875 1607.7919921875 1614.676025390625 1622.4720458984375 1630.426025390625 1636.9320068359375 1642.5460205078125 1648.363037109375 1656.092041015625 1661.3489990234375 1667.89404296875 1675.031005859375 1683.030029296875 1689.06201171875 1693.8709716796875 1695.991943359375 1699.637939453125 1704.3199462890625 1707.7889404296875 1711.156005859375 1715.001953125 1718.427001953125 1721.4420166015625 1725.1929931640625 1729.376953125 1732.0240478515625 1733.781005859375 1735.8380126953125 1737.0980224609375 1739.906982421875 1745.883056640625 1750.636962890625 1754.9820556640625 1759.39599609375 1764.947021484375 1769.281005859375 1772.6190185546875 1776.1259765625 1779.657958984375 1783.0250244140625 1787.238037109375 1790.5250244140625 1795.6109619140625 1799.68798828125 1801.06494140625 1801.22802734375 1801.362060546875 1801.614990234375 1801.7679443359375 1802.43505859375 1803.866943359375 1805.1519775390625 1804.5050048828125 1804.3399658203125 1803.3990478515625 1801.759033203125 1799.5169677734375 1798.762939453125 1797.06103515625 1791.3609619140625 1785.6500244140625 1782.469970703125 1777.68798828125 1774.1109619140625 1771.093994140625 1769.2769775390625 1765.6090087890625 1764.2120361328125 1758.1619873046875 1751.0570068359375 1745.2509765625 1738.9560546875 1732.6910400390625 1727.2359619140625 1718.864990234375 1716.2469482421875 1712.572998046875 1715.741943359375
